ply
format ascii 1.0
comment Author: CloudCompare (TELECOM PARISTECH/EDF R&D)
obj_info Generated by CloudCompare!
element vertex 455
property float x
property float y
property float z
end_header
-38.2785 536.664 373.404 
-23.2176 539.88 379.143 
-15.2534 524.234 364.751 
-8.38017 537.055 373.915 
-4.33385 552.682 353.428 
-1.38325 549.003 378.962 
-62.2132 547.595 394.241 
-48.0839 541.904 402.163 
-37.3584 553.386 391.627 
-30.1563 552.743 434.265 
-23.7477 548.618 421.707 
-22.2955 554.195 391.793 
-28.127 617.753 361.186 
-22.8217 630.712 366.937 
-19.2868 644.775 369.361 
-9.3806 656.834 377.511 
-1.38646 583.696 376.392 
4.71561 569.767 376.272 
6.87827 657.873 379.09 
-52.6052 594.664 422.201 
-48.9377 595.169 436.921 
-45.8684 581.13 420.033 
-45.453 573.737 401.303 
-37.2213 606.158 449.849 
-33.2571 590.158 434.84 
-33.2277 568.977 408.049 
-30.1757 579.671 420.295 
-30.1736 630.509 470.564 
-26.3217 616.185 456.811 
-24.1952 602.756 443.28 
-23.5141 566.924 437.279 
-23.394 556.919 408.328 
-20.5313 564.911 422.085 
-20.2472 639.202 453.137 
-19.3957 649.158 483.8 
-19.3172 571.905 404.185 
-19.2577 579.81 430.236 
-17.6683 596.884 429.431 
-17.0685 590.371 413.712 
-16.1714 638.726 472.311 
-15.7221 614.54 446.488 
-15.6725 626.196 459.826 
-15.2466 558.816 448.393 
-12.2183 574.781 443.992 
-8.54332 565.19 395.651 
-6.20733 588.787 440.224 
-5.40881 610.092 431.012 
-5.04066 580.473 404.668 
-4.89705 598.367 419.686 
-4.22908 651.667 400.405 
-2.62088 616.679 386.684 
-1.38565 667.487 410.768 
-1.28243 562.776 448.855 
0.805377 617.8 444.229 
0.839758 637.81 397.197 
1.51946 596.806 386.414 
2.18085 600.627 439.639 
2.71791 578.783 446.686 
3.94587 573.585 394.465 
4.06475 599.681 495.461 
4.65534 623.795 401.287 
4.68431 609.768 397.282 
5.74494 593.825 409.212 
6.06584 660.379 394.196 
6.97626 628.718 455.218 
7.36366 646.777 407.903 
7.60865 592.799 483.198 
7.75618 605.883 423.17 
8.68404 624.801 415.269 
8.77147 674.789 422.249 
9.41101 608.634 454.404 
10.7969 595.795 468.243 
11.0048 610.744 486.295 
11.0526 619.875 466.091 
11.2558 622.673 495.398 
11.5007 639.805 422.323 
12.2006 669.725 436.13 
12.4856 594.713 451.404 
12.7063 635.821 469.261 
12.822 656.781 419.223 
12.8505 567.805 451.06 
13.2826 580.887 471.726 
13.728 615.024 433.062 
15.6843 631.811 484.239 
16.5287 635.716 435.426 
16.6467 665.176 405.225 
17.4068 642.916 495.15 
18.9023 653.724 433.194 
18.9337 647.736 479.257 
-5.11519 649.775 529.332 
-4.56025 669.925 538.9 
-4.02669 636.709 522.542 
-2.03698 623.654 514.505 
0.594305 611.928 506.008 
2.80798 663.789 527.268 
6.4981 645.997 518.75 
9.02844 631.692 508.391 
12.5529 675.016 524.166 
12.9776 658.734 516.381 
-0.196303 680.626 548.273 
9.67709 681.062 537.157 
9.76749 681.329 560.297 
20.7176 627.261 446.835 
21.6436 650.882 448.233 
22.7041 656.832 495.228 
22.8119 667.753 419.236 
23.7773 638.633 459.401 
27.0959 667.519 433.116 
27.5771 658.887 459.268 
27.6959 669.063 396.24 
31.7651 661.934 485.131 
31.7686 647.043 469.032 
31.9476 667.669 448.238 
33.5546 668.907 469.238 
34.813 672.527 409.274 
37.6426 671.302 495.887 
38.7811 674.495 425.289 
41.7334 656.826 475.242 
47.5743 667.867 484.299 
49.7471 673.458 412.278 
52.7617 674.597 432.308 
67.7954 674.923 429.232 
20.6187 670.957 512.047 
51.7408 674.857 497.21 
41.2577 682.2 477.239 
41.6576 677.971 461.215 
41.8088 677.726 443.248 
45.5685 686.929 491.246 
55.6401 700.072 495.106 
56.7049 689.102 479.107 
56.7398 681.403 455.376 
65.7895 684.423 467.375 
66.8004 676.11 445.153 
70.7577 701.261 495.86 
72.7735 692.496 483.445 
77.7612 679.663 460.29 
81.7499 685.533 473.378 
84.7895 698.837 493.214 
92.7402 680.261 465.38 
92.8607 689.16 482.956 
99.7618 700.077 494.968 
110.73 690.09 488.016 
20.7489 682.962 572.238 
20.7901 683.723 546.24 
24.9004 683.373 527.284 
26.6518 696.845 586.01 
30.8907 686.622 558.269 
31.9404 709.551 595.268 
33.4601 693.06 573.049 
34.4797 687.352 541.238 
34.5668 680.245 510.924 
38.2315 706.402 580.597 
38.6503 689.123 526.171 
41.8143 713.267 606.177 
42.949 696.639 558.305 
45.8666 715.643 590.247 
46.0198 696.458 540.294 
48.8379 708.757 568.268 
48.8487 687.6 514.382 
51.852 696.619 526.338 
55.3655 708.245 553.013 
56.0289 717.322 610.093 
56.7923 720.797 580.247 
56.9198 703.734 509.224 
59.0719 721.309 596.227 
59.6336 718.029 565.148 
59.6517 707.002 538.154 
63.341 712.993 519.326 
65.4207 696.152 519.123 
66.8033 716.768 549.254 
69.6587 725.012 609.325 
69.9358 721.745 530.208 
70.5389 726.324 576.17 
74.0095 725.31 559.47 
74.6124 730.143 590.163 
74.7763 710.886 506.157 
76.7584 728.8 541.255 
79.7721 721.169 517.06 
80.7344 735.87 602.243 
82.8191 735.756 576.244 
83.8527 738.773 552.219 
84.7704 738.814 533.225 
88.727 741.845 590.237 
90.7899 717.787 508.249 
91.1855 747.773 563.149 
92.0929 730.399 520.598 
92.555 744.162 606.384 
94.9977 750.471 547.341 
95.5566 746.116 578.153 
99.1413 760.565 571.273 
99.5178 743.146 526.804 
99.6214 752.009 596.25 
104.257 761.369 550.279 
106.312 770.997 580.378 
106.501 752.122 609.38 
106.524 757.119 534.955 
106.719 727.129 513.811 
106.736 711.09 503.765 
106.826 753.715 583.28 
109.137 768.573 562.278 
111.531 761.057 598.283 
113.506 782.972 585.267 
113.517 743.159 522.698 
114.146 768.421 540.543 
115.871 782.751 569.261 
117.164 778.564 553.334 
117.739 701.949 498.974 
119.63 757.89 526.105 
120.572 786.822 598.386 
120.718 722.858 509.093 
122.787 771.795 605.241 
122.856 793.778 558.258 
124.543 781.88 540.142 
124.559 736.917 512.923 
125.542 771.904 529.103 
129.519 795.831 536.127 
130.268 761.74 515.572 
130.696 795.804 609.322 
132.418 782.808 522.153 
64.7856 715.828 624.251 
77.6315 722.049 621.409 
87.7946 717.777 631.214 
88.4109 734.299 616.7 
96.7939 728.787 627.229 
102.789 716.782 635.196 
105.522 743.01 623.49 
112.735 728.855 634.414 
117.093 754.481 621.01 
120.797 746.787 633.223 
126.829 727.793 637.89 
127.51 765.022 623.417 
131.569 756.982 635.454 
131.67 777.879 615.299 
121.91 796.735 581.246 
123.784 804.796 569.241 
124.313 824.79 553.229 
125.389 800.604 595.133 
125.54 804.79 549.176 
126.301 818.82 566.296 
126.909 833.785 566.219 
126.938 814.768 581.209 
129.014 829.745 581.219 
130.17 814.675 599.181 
130.454 843.831 577.293 
132.924 829.784 595.209 
132.957 847.77 591.22 
134.74 742.8 641.353 
137.91 771.709 631.131 
141.41 786.036 623.43 
142.726 730.593 640.714 
145.552 764.992 641.574 
149.036 779.669 637.975 
149.734 742.97 645.065 
153.039 795.621 633.103 
156.819 757.784 649.074 
159.831 786.778 645.191 
160.935 771.681 648.923 
167.688 743.472 646.695 
170.784 793.796 652.244 
171.003 756.866 653.756 
174.585 774.931 654.561 
184.582 794.725 659.468 
185.016 765.849 659.852 
188.993 780.755 660.907 
198.493 790.826 666.704 
199.79 762.794 664.226 
206.973 774.831 667.904 
212.508 795.757 673.695 
221.384 780.616 675.697 
224.918 795.825 684.164 
235.505 791.584 695.49 
239.1 795.77 710.217 
134.926 857.79 602.228 
136.191 842.809 606.122 
136.683 825.818 609.279 
136.234 808.926 614.6 
136.681 868.797 615.259 
138.505 853.774 616.344 
141.548 839.767 620.323 
143.029 819.771 622.083 
143.067 871.874 631.071 
145.911 855.785 629.143 
146.804 878.803 649.229 
149.255 832.777 630.586 
151.902 863.85 642.187 
153.029 813.876 631.953 
153.206 845.726 637.981 
154.636 885.765 659.622 
159.657 869.768 659.346 
159.981 853.839 649.188 
160.212 823.79 639.874 
162.474 802.982 641.409 
169.473 835.708 649.631 
171.71 863.881 665.735 
172.332 811.398 648.994 
172.805 881.87 662.806 
178.653 843.767 658.5 
180.832 899.68 657.105 
181.769 811.798 660.263 
182.504 821.91 647.543 
185.44 868.278 669.695 
187.823 886.76 663.083 
189.013 823.638 665.123 
190.941 850.836 668.998 
194.146 807.004 666.757 
196.606 899.01 660.695 
197.74 872.829 677.287 
198.584 829.865 674.371 
203.367 857.866 679.704 
203.565 884.945 670.471 
206.91 812.864 675.01 
207.146 841.62 670.037 
207.678 911.028 657.626 
210.004 837.753 685.043 
210.483 880.077 683.583 
210.488 899.022 667.633 
214.197 822.02 683.832 
217.822 849.772 680.226 
220.474 840.902 695.449 
221.287 891.401 681.887 
221.325 873.65 694.872 
221.56 911.138 665.513 
222.955 810.825 688.168 
225.072 854.484 692.205 
227.515 822.806 695.364 
227.527 905.095 677.515 
227.714 886.84 695.303 
228.498 846.886 706.357 
231.828 810.797 703.224 
233.646 825.821 710.275 
233.859 899.733 691.183 
234.219 861.416 703.175 
235.643 812.771 717.273 
235.692 916.014 670.395 
235.867 882.76 707.195 
236.876 850.761 721.195 
237.671 825.8 724.266 
239.375 804.874 729.132 
241.852 911.703 685.194 
242.178 897.545 702.947 
242.868 867.726 713.208 
246.412 859.07 729.488 
246.557 889.971 716.328 
239.239 814.755 740.206 
241.024 840.782 731.186 
243.683 829.83 743.279 
252.466 876.037 721.386 
253.219 908.324 698.843 
256.365 901.211 717.47 
264.37 886.191 725.348 
264.546 911.275 707.381 
266.896 904.692 728.176 
275.598 915.107 717.315 
249.974 822.614 757.072 
250.076 846.505 741.996 
255.132 836.544 752.771 
257.248 864.552 737.762 
262.551 851.087 748.62 
264.66 827.906 760.523 
267.766 878.806 740.267 
271.564 842.948 758.547 
271.686 862.863 749.39 
274.586 893.924 735.315 
275.19 907.406 741.031 
278.493 883.909 749.508 
281.943 854.709 759.999 
282.613 837.922 766.556 
283.483 896.932 753.416 
283.647 868.841 756.42 
285.947 914.622 748.172 
290.804 885.796 759.216 
293.217 905.509 761.003 
293.55 848.939 769.585 
296.746 866.805 766.295 
300.592 892.78 767.464 
303.582 912.961 770.312 
307.52 876.824 772.665 
307.524 860.844 775.552 
311.598 897.752 776.528 
314.72 911.806 780.307 
318.739 883.797 779.31 
319.687 866.807 781.444 
323.804 898.798 785.217 
327.382 916.754 793.648 
332.687 882.778 788.42 
334.855 902.806 794.174 
343.808 886.797 797.209 
347.077 901.786 802.999 
356.482 908.788 813.5 
249.997 921.254 675.13 
256.746 918.927 688.277 
264.484 925.337 677.408 
267.983 921.592 697.176 
276.455 927.427 686.187 
280.606 926.094 704.351 
285.684 918.977 728.267 
292.93 929.673 713.222 
293.754 930.922 695.202 
300.472 929.254 727.392 
307.643 935.226 708.167 
314.662 936.131 729.353 
321.87 938.278 714.383 
329.771 942.837 729.242 
343.892 946.543 728.342 
296.689 923.959 743.267 
296.704 919.852 758.294 
307.581 931.029 755.265 
311.812 928.776 771.216 
317.547 937.148 746.259 
321.256 940.464 762.234 
321.917 925.578 782.254 
329.025 939.568 783.183 
332.612 945.133 751.157 
332.665 947.942 771.263 
332.724 931.855 797.252 
340.152 944.593 793.976 
342.741 936.813 807.279 
343.763 954.823 780.251 
344.767 951.867 756.227 
349.378 922.706 812.636 
350.816 948.776 803.216 
351.878 951.562 740.276 
354.18 959.52 790.034 
354.357 936 819.612 
354.489 963.263 774.054 
357.781 958.801 754.24 
361.402 948.155 813.318 
361.911 958.681 803.187 
364.697 945.839 828.287 
365.037 969.358 782.959 
367.776 969.803 755.236 
369.766 975.828 770.245 
371.837 938.787 839.214 
372.619 960.112 815.432 
372.681 968.067 795.412 
379.734 974.149 781.491 
381.034 959.255 833.196 
382.551 969.192 807.297 
386.749 982.235 770.654 
390.36 961.328 845.637 
390.469 967.325 823.384 
390.677 972.08 792.335 
401.718 974.046 808.224 
401.771 979.862 779.259 
403.493 973.283 828.481 
404.679 975.999 793.302 
412.783 976.734 817.239 
414.768 975.818 839.247 
418.943 979.343 797.092 
429.772 980.063 807.316 
439.752 982.058 825.205 
440.986 985.417 843.24 
445.799 980.689 810.25 
406.793 969.768 853.24 
442.623 984.173 858.291 
