ply
format ascii 1.0
comment Author: CloudCompare (TELECOM PARISTECH/EDF R&D)
obj_info Generated by CloudCompare!
element vertex 468
property float x
property float y
property float z
end_header
-666.689 419.636 835.741 
-666.388 405.758 831.456 
-665.995 433.812 839.09 
-606.535 287.666 728.184 
-620.068 311.07 749.126 
-612.411 300.705 738.239 
-612.199 311.807 764.235 
-663.378 389.681 825.628 
-657.915 376.244 816.832 
-656.636 411.589 842.722 
-654.476 397.556 835.576 
-653.625 364.401 806.607 
-648.283 350.662 798.398 
-647.167 385.85 830.193 
-644.397 401.593 845.471 
-644.164 370.912 817.14 
-641.241 339.766 790.261 
-637.137 356.941 807.112 
-635.495 390.49 842.575 
-633.858 376.343 828.699 
-631.222 332.589 782.402 
-629.218 364.789 818.248 
-626.458 343.371 795.531 
-626.143 323.146 769.964 
-624.078 380.003 841.125 
-623.436 351.516 807.3 
-619.227 368.768 829.262 
-617.947 333.124 788.997 
-613.782 322.143 777.96 
-613.307 357.77 821.247 
-656.682 429.677 849.684 
-647.939 417.926 854.039 
-645.357 430.755 861.333 
-637.219 418.793 865.245 
-636.044 404.888 857.115 
-633.433 432.747 873.45 
-627.346 408.721 871.341 
-626.36 392.686 856.365 
-623.18 425.802 882.207 
-619.158 395.866 869.19 
-617.443 408.667 882.549 
-612.082 432.802 893.092 
-664.38 449.802 842.32 
-659.318 467.828 846.276 
-652.194 480.77 846.221 
-642.416 492.022 839.374 
-631.802 502.513 835.306 
-620.675 513.195 827.162 
-619.263 507.865 842.294 
-608.462 523.209 823.332 
-606.703 517.156 841.372 
-597.513 526.239 834.381 
-597.384 530.107 813.3 
-587.259 534.865 825.258 
-586.834 531.39 844.146 
-586.351 538.02 808.257 
-577.593 542.219 835.376 
-575.92 544.43 818.168 
-574.648 548.336 802.5 
-567.332 548.94 843.337 
-565.667 553.235 825.278 
-655.377 452.796 853.385 
-648.167 466.778 857.19 
-644.371 449.822 863.384 
-640.822 479.37 855.793 
-637.29 462.844 868.333 
-632.196 448.792 875.222 
-632.026 491.566 850.034 
-629.76 481.27 865.063 
-624.41 462.89 878.482 
-620.742 444.877 885.689 
-619.261 491.858 862.313 
-619.236 475.814 874.262 
-612.056 460.652 887.004 
-608.728 506.312 856.981 
-608.476 488.019 873.346 
-608.415 447.94 895.476 
-604.913 474.559 884.837 
-601.041 500.565 869.008 
-597.924 459.408 896.709 
-597.711 518.285 852.997 
-594.119 491.705 880.071 
-590.544 472.146 893.666 
-590.36 511.031 865.479 
-583.3 484.895 889.358 
-583.296 523.903 860.324 
-581.141 498.732 882.203 
-577.972 513.524 874.917 
-576.069 475.665 901.147 
-575.51 535.104 853.441 
-571.096 527.627 868.063 
-570.166 490.755 894.198 
-568.456 507.105 884.721 
-562.252 541.831 860.25 
-561.712 522.309 879.881 
-559.435 502.945 896.445 
-554.965 534.558 874.887 
-554.373 553.12 851.642 
-550.93 519.511 889.886 
-566.235 559.81 799.245 
-558.885 563.526 814.089 
-558.166 573.771 800.231 
-558.128 559.678 838.17 
-553.367 588.886 792.332 
-551.029 568.641 826.245 
-547.393 511.962 902.28 
-547.393 548.973 868.352 
-543.669 532.243 884.612 
-539.238 523.813 900.25 
-536.454 545.006 880.623 
-532.95 537.601 894.147 
-525.822 550.538 889.031 
-447.42 665.131 728.415 
-437.207 674.783 724.232 
-549.091 577.716 814.185 
-545.583 603.084 790.577 
-544.492 567.148 843.469 
-543.965 592.473 802.997 
-541.1 577.655 832.146 
-537.527 615.994 789.583 
-536.658 589.291 816.681 
-533.058 603.639 801.082 
-530.243 573.853 842.284 
-530.141 628.751 788.157 
-529.343 587.134 830.532 
-525.826 601.349 813.9 
-522.278 614.851 801.285 
-521.034 642.632 787.178 
-518.47 584.142 845.382 
-518.353 596.148 825.576 
-515.064 628.667 796.052 
-511.492 614.191 812.485 
-510.075 649.345 780.313 
-507.896 593.366 841.12 
-507.413 644.092 793.78 
-505.224 602.818 828.258 
-504.32 626.116 805.776 
-499.012 651.307 770.386 
-497.131 612.678 818.19 
-496.244 650.409 785.985 
-495.107 598.492 846.101 
-493.265 635.176 800.689 
-489.94 608.411 830.192 
-489.197 623.742 810.159 
-486.233 653.06 763.185 
-482.301 644.41 792.771 
-482.222 653.181 780.41 
-481.287 615.209 820.59 
-479.173 633.682 806.068 
-479.173 602.616 846.098 
-476.213 652.761 752.24 
-475.391 610.361 833.591 
-471.249 656.009 768.216 
-468.411 621.283 823.52 
-468.221 642.936 797.356 
-464.265 652.079 783.367 
-464.237 631.068 811.502 
-464.226 605.449 845.876 
-463.226 654.325 741.351 
-457.296 657.204 762.201 
-457.237 616.042 833.446 
-453.297 645.265 794.461 
-453.244 626.997 820.39 
-450.29 657.162 775.33 
-450.234 633.299 804.687 
-447.195 607.425 842.841 
-446.419 659.333 749.257 
-443.257 619.709 828.117 
-442.28 660.224 763.304 
-439.297 652.132 785.402 
-439.236 631.334 814.9 
-542.39 560.028 857.383 
-533.005 559.569 869.976 
-529.391 569.997 859.31 
-522.244 567.824 875.266 
-516.734 556.489 900.071 
-515.319 577.99 864.278 
-514.952 566.569 888.093 
-508.172 577.718 879.215 
-504.294 586.99 857.375 
-504.207 570.78 897.232 
-497.097 585.431 873.065 
-493.227 578.063 888.37 
-489.175 593.263 860.874 
-482.261 585.373 871.976 
-471.229 589.989 862.347 
-468.403 581.427 874.927 
-457.357 586.369 865.768 
-453.223 597.127 852.527 
-442.406 587.436 858.779 
-438.111 597.029 848.537 
-436.189 642.013 795.529 
-436.004 665.313 739.015 
-432.376 607.389 834.954 
-432.211 663.785 753.239 
-428.437 621.435 820.807 
-428.364 636.414 806.745 
-428.329 658.384 776.509 
-424.25 592.71 846.159 
-424.241 674.859 731.291 
-424.214 647.799 788.242 
-421.265 664.113 763.321 
-420.163 609.872 824.313 
-418.127 670.338 743.974 
-418.078 599.082 834.478 
-415.397 627.595 809.902 
-414.244 657.669 781.115 
-414.244 640.685 799.117 
-407.308 666.163 767.355 
-406.412 602.508 823.928 
-405.088 613.905 811.44 
-403.583 630.568 800.784 
-403.575 648.593 789.658 
-403.305 674.233 744.523 
-396.275 657.319 779.856 
-396.263 671.919 757.259 
-394.083 616.898 802.449 
-392.959 634.009 790.59 
-392.392 603.443 814.89 
-385.582 643.494 779.728 
-385.288 663.023 768.243 
-382.386 620.673 791.993 
-382.163 607.889 805.333 
-380.214 674.796 756.241 
-376.291 630.692 781.109 
-375.004 652.037 771.724 
-370.378 612.537 792.017 
-367.546 664.314 763.666 
-367.521 638.496 770.771 
-367.498 673.775 748.896 
-364.298 620.558 781.03 
-360.115 648.81 763.38 
-356.321 609.473 787.97 
-354.276 666.74 756.111 
-353.407 625.49 771.913 
-353.31 674.303 741.38 
-350.189 636.827 763.307 
-346.229 652.791 754.214 
-346.069 613.964 778.448 
-340.297 666.705 749.062 
-339.779 624.215 766.81 
-336.358 638.642 755.915 
-331.484 651.458 746.639 
-330.047 674.008 741.635 
-328.241 623.773 757.203 
-428.975 685.417 716.911 
-418.122 695.66 712.109 
-414.274 686.974 724.445 
-407.503 707.234 708.719 
-403.355 697.159 720.642 
-397.126 717.727 707.123 
-392.354 689.199 728.706 
-392.335 707.171 716.777 
-385.196 727.511 705.81 
-379.146 696.357 725.766 
-378.221 711.645 714.917 
-371.342 734.423 702.7 
-367.226 721.625 709.861 
-364.246 706.991 717.443 
-364.222 692.7 728.15 
-360.471 736.436 692.083 
-355.957 727.265 702.586 
-351.176 733.841 677.256 
-350.254 699.659 720.069 
-349.314 715.481 710.8 
-346.218 726.788 689.238 
-342.461 690.497 728.757 
-341.36 731.603 665.134 
-338.329 704.603 712.968 
-338.286 717.382 701.14 
-337.217 724.789 677.239 
-330.218 681.819 728.241 
-328.326 729.54 653.173 
-328.178 717.98 690.289 
-324.973 696.129 716.735 
-324.455 709.387 701.813 
-324.278 722.545 671.113 
-389.302 678.262 743.518 
-374.356 684.392 738.529 
-215.214 674.835 581.222 
-296.092 674.871 729.483 
-285.207 664.832 728.309 
-271.201 674.87 722.398 
-256.306 673.13 726.721 
-241.226 674.934 727.38 
-227.512 674.321 722.097 
-222.026 674.904 705.272 
-219.46 674.729 687.206 
-217.211 659.796 682.242 
-216.747 674.59 672.053 
-213.828 655.835 667.364 
-210.573 670.7 659.036 
-321.138 635.854 749.465 
-321.122 660.827 740.428 
-313.335 648.571 741.881 
-313.32 621.713 749.986 
-313.167 674.889 735.395 
-307.185 634.829 745.359 
-306.357 659.573 734.678 
-295.271 649.491 737.664 
-292.217 634.827 743.329 
-281.283 644.428 739.833 
-273.217 655.875 734.433 
-256.334 660.248 733.682 
-254.196 680.85 612.197 
-242.039 690.568 612.547 
-241.307 677.172 605.773 
-231.325 677.91 593.17 
-227.804 689.212 601.727 
-223.309 699.978 612.135 
-216.34 688.007 591.967 
-213.398 700.036 601.059 
-318.155 727.93 641.28 
-314.211 724.809 659.244 
-314.189 685.372 724.133 
-314.109 688.895 709.445 
-313.939 716.335 684.595 
-310.322 705.374 700.963 
-306.298 719.42 671.136 
-306.289 724.478 632.228 
-303.159 724.147 648.279 
-300.327 692.66 700.011 
-299.378 712.275 681.967 
-299.28 688.376 717.954 
-294.167 721.111 659.3 
-294.122 717.909 623.221 
-292.376 705.393 693.869 
-288.247 722.487 638.272 
-288.227 692.309 708.443 
-286.194 714.039 673.331 
-285.249 684.61 722.044 
-283.609 706.45 618.394 
-281.31 696.203 691.254 
-281.233 722.346 651.143 
-277.403 708.384 683.847 
-277.279 714.675 629.352 
-274.239 690.031 713.322 
-274.238 717.657 663.171 
-270.844 692.297 617.059 
-270.236 720.679 641.281 
-267.242 698.189 694.358 
-267.152 703.912 625.098 
-263.608 706.877 674.805 
-263.227 721.5 654.111 
-259.244 689.492 714.01 
-256.379 714.243 637.643 
-256.217 694.822 620.193 
-252.648 712.544 666.719 
-252.282 697.39 695.434 
-249.284 705.29 628.588 
-249.252 703.164 681.327 
-249.227 720.673 650.348 
-245.342 689.241 709.937 
-242.114 706.881 658.39 
-238.273 699.578 690.107 
-238.266 711.291 637.92 
-235.233 706.928 675.266 
-234.45 717.456 650.876 
-234.329 701.322 621.927 
-231.086 688.971 699.352 
-227.703 695.54 680.12 
-227.237 709.167 661.287 
-225.249 717.838 637.201 
-222.027 691.896 666.317 
-220.535 709.193 623.909 
-220.32 708.379 647.142 
-213.307 695.77 652.136 
-209.677 716.599 631.721 
-209.312 709.941 613.157 
-200.29 670.664 580.402 
-184.274 668.749 581.68 
-170.238 673.804 580.097 
-158.195 663.72 576.342 
-148.264 674.74 572.073 
-134.277 665.82 572.015 
-123.128 674.9 566.553 
-109.385 674.509 561.76 
-102.036 674.944 538.242 
-97.0949 670.939 554.253 
-96.9281 674.907 522.405 
-206.16 656.802 654.289 
-202.25 674.785 647.211 
-192.385 661.637 643.856 
-189.903 675.005 637.708 
-179.234 655.762 641.143 
-175.124 674.943 630.499 
-166.256 661.721 636.047 
-159.243 673.679 626.135 
-148.241 663.038 632.59 
-144.305 674.284 621.862 
-130.262 669.193 625.71 
-116.221 675.159 618.68 
-204.154 696.712 590.404 
-199.137 710.71 601.306 
-195.266 684.899 584.849 
-191.283 703.881 588.919 
-191.237 718.657 611.227 
-184.272 717.199 596.182 
-181.223 706.752 608.236 
-180.295 688.888 583.834 
-174.582 712.752 583.833 
-170.242 705.64 597.233 
-168.219 697.797 580.228 
-166.457 708.363 611.949 
-162.888 711.83 574.624 
-159.446 695.655 611.868 
-159.204 684.797 575.257 
-156.111 709.076 601.342 
-155.218 704.016 585.199 
-152.264 702.78 570.178 
-148.215 684.791 612.236 
-145.127 698.851 601.377 
-144.974 711.016 560.496 
-141.364 693.637 565.784 
-141.352 708.193 590.114 
-135.963 707.257 576.581 
-134.514 706.572 551.051 
-134.334 689.429 603.777 
-127.311 688.694 562.123 
-127.163 703.693 564.312 
-127.155 696.978 593.442 
-124.566 704.662 536.995 
-119.955 692.096 548.343 
-119.318 705.245 579.068 
-119.306 688.352 602.61 
-115.662 698.753 525.941 
-112.491 704.395 553.883 
-112.228 696.448 591.946 
-109.026 686.949 532.319 
-105.338 685.243 610.571 
-105.336 699.036 541.073 
-105.226 705.732 568.23 
-101.23 702.117 583.393 
-101.227 711.699 519.312 
-98.3177 694.214 598.586 
-98.1189 705.054 552.221 
-95.0544 696.3 529.499 
-202.595 705.695 644.879 
-200.264 691.78 641.177 
-198.457 708.267 624.015 
-189.34 699.829 634.077 
-180.972 687.938 627.607 
-180.442 709.357 622.977 
-166.431 685.609 619.802 
-130.227 678.533 614.009 
-93.5141 663.536 531.258 
-90.2914 663.769 515.221 
-71.8823 675.099 541.239 
-68.2992 674.721 555.277 
-66.0879 674.806 526.347 
-64.1619 671.753 502.913 
-61.8989 664.116 543.169 
-60.0496 674.98 570.04 
-59.6613 663.555 519.167 
-57.2289 663.774 559.245 
-66.0012 697.698 473.541 
-56.2146 688.795 465.236 
-92.3171 702.464 509.488 
-91.2458 702.751 565.258 
-87.6548 694.479 549.117 
-87.2615 701.062 590.331 
-83.229 694.421 520.399 
-80.3456 699.558 575.354 
-80.2947 690.729 505.258 
-79.9117 691.959 536.506 
-76.5987 687.433 561.533 
-72.2817 699.58 588.269 
-67.2073 688.802 573.235 
