ply
format ascii 1.0
comment Author: CloudCompare (TELECOM PARISTECH/EDF R&D)
obj_info Generated by CloudCompare!
element vertex 406
property float x
property float y
property float z
end_header
-109.395 822.81 632.951 
-108.379 840.824 633.859 
-105.351 855.722 633.733 
-100.124 872.763 634.57 
-95.1782 887.825 634.477 
-55.328 786.254 622.709 
-51.0331 774.953 631.21 
-49.9478 785.796 642.163 
-49.2298 757.803 654.239 
-48.343 771.793 650.243 
-47.1203 766.754 668.24 
-46.9979 789.768 656.209 
-46.2381 758.798 637.231 
-44.5453 780.889 671.364 
-40.7607 795.697 671.953 
-33.1923 788.791 682.201 
-65.3053 801.992 608.862 
-94.2136 843.795 632.24 
-91.2245 860.775 633.552 
-90.217 901.765 631.021 
-85.1359 915.864 633.081 
-83.3104 874.746 636.696 
-80.298 891.893 635.703 
-76.0456 916.937 645.147 
-71.1504 864.858 637.773 
-70.5368 903.644 641.56 
-69.2856 881.807 639.604 
-67.9658 917.084 659.983 
-60.4441 900.662 652.458 
-60.2248 871.793 645.254 
-56.1721 916.844 670.19 
-55.3362 885.769 652.366 
-55.2926 814.455 617.683 
-55.2631 813.931 648.096 
-51.5396 903.505 664.656 
-51.4099 801.231 634.771 
-51.2466 839.643 634.529 
-48.1463 861.975 647.905 
-46.0198 889.914 662.969 
-45.2024 875.829 656.182 
-44.4004 804.834 656.269 
-42.2983 814.811 641.231 
-41.7291 821.943 656.225 
-40.9891 844.533 660.75 
-40.2734 849.618 640.566 
-40.2535 906.039 673.755 
-39.5423 829.901 644.093 
-38.0457 811.776 670.13 
-37.6639 854.728 670.507 
-37.094 829.789 669.142 
-36.1541 869.791 674.212 
-35.4024 857.822 655.195 
-34.3366 885.796 679.29 
-32.3596 905.783 686.331 
-30.1068 804.764 681.112 
-29.9617 842.828 674.745 
-29.2133 901.794 702.245 
-26.5659 824.904 678.752 
-26.4165 916.657 695.652 
-22.3306 855.707 679.649 
-22.2898 888.938 686.814 
-22.2245 874.785 683.319 
-19.3693 814.846 686.581 
-15.5257 838.839 682.734 
-15.334 907.909 690.873 
-9.29173 864.768 684.53 
-8.24382 826.836 689.383 
-8.20043 892.817 687.017 
-4.34679 849.835 686.622 
-4.27985 878.758 686.549 
-2.18935 915.682 691.586 
4.75824 865.802 688.346 
5.79091 898.79 688.84 
9.70501 884.858 690.676 
13.7516 910.886 689.77 
-87.0348 929.109 645.217 
-80.9613 933.204 666.888 
-80.1652 985.675 669.797 
-73.1986 998.768 669.159 
-73.1752 976.786 681.216 
-69.3448 936.634 677.418 
-68.9852 990.682 681.124 
-66.0902 954.854 687.872 
-63.9838 1012.58 670.159 
-63.0139 979.815 691.946 
-62.4192 1002.91 685.335 
-58.2948 941.647 685.58 
-57.4045 992.789 696.49 
-55.4464 1023.95 674.33 
-55.3486 1012.84 695.286 
-55.291 964.719 691.61 
-51.3033 928.65 681.559 
-48.5449 1026.98 696.194 
-48.0964 1002.86 703.963 
-48.0835 979.889 697.933 
-48.0531 1036.68 674.169 
-47.2788 951.728 691.467 
-44.5086 1018.71 708.73 
-42.9541 1037.67 688.155 
-42.4333 1033.86 710.396 
-40.1632 937.873 688.038 
-40.1135 989.812 706.144 
-37.3188 920.884 680.061 
-37.3099 966.71 699.492 
-36.1663 1004.8 713.182 
-34.1954 928.803 702.264 
-33.7546 1018.85 718.809 
-33.7406 1035.89 722.787 
-30.183 950.869 692.029 
-26.3355 981.644 703.636 
-25.292 957.778 706.313 
-22.867 994.925 708.781 
-22.3209 938.661 703.647 
-20.2908 1026.85 720.108 
-20.1093 979.828 717.13 
-20.0587 1003.79 721.189 
-15.2018 1037.79 729.24 
-12.2226 962.804 712.219 
-12.2211 926.807 699.214 
-8.27915 988.931 720.884 
-8.26713 1008.88 729.047 
-8.26641 946.883 705.969 
-4.37918 975.99 714.692 
0.825557 933.753 698.378 
1.40529 961.963 705.754 
2.57401 999.063 722.64 
5.7873 1014.8 729.241 
5.80854 986.746 713.331 
7.50142 948.887 698.728 
11.7338 972.847 702.139 
13.6927 926.837 692.879 
16.6405 960.957 693.931 
16.7538 998.539 717.805 
-12.2045 1022.82 735.185 
-7.17831 1037.88 742.045 
2.74359 1028.11 737.79 
16.7283 1026.04 731.852 
-40.5464 1048.98 677.31 
-37.3537 1045.88 699.193 
-35.5285 1051.95 714.226 
-33.6596 1059.08 686.354 
-31.3223 1052.78 728.314 
-30.0806 1064.75 720.251 
-29.8906 1059.57 702.348 
-28.5042 1158.74 723.246 
-27.6269 1077.73 728.26 
-26.5587 1070.91 693.244 
-25.5132 1144.75 728.254 
-25.2513 1095.8 729.234 
-24.8484 1073.65 709.382 
-24.8107 1147.73 713.044 
-23.6814 1130.74 724.222 
-23.4475 1112.83 729.128 
-23.1055 1087.77 716.295 
-21.241 1133.79 709.232 
-21.0059 1084.72 694.241 
-20.8355 1102.79 716.305 
-19.6355 1118.83 709.454 
-16.6491 1098.86 702.113 
-26.5509 1065.7 736.66 
-25.7556 1158.83 739.138 
-25.2774 1087.79 742.279 
-25.1707 1140.8 742.242 
-24.7992 1104.8 742.131 
-24.7691 1122.8 742.219 
-21.8887 1153.81 753.029 
-20.7419 1113.82 752.905 
-19.3916 1138.77 755.404 
-15.3687 1097.6 752.735 
-15.3148 1076.94 742.921 
-15.2539 1053.76 731.336 
-13.7738 1126.92 763.756 
-13.0978 1146.79 767.18 
-12.0679 1061.79 744.167 
-8.78252 1158.84 774.88 
-7.71892 1081.73 756.461 
-6.67687 1105.91 762.256 
-4.60556 1050.57 749.658 
-4.33816 1065.74 756.368 
-2.75434 1125.76 774.486 
-2.20792 1090.8 767.234 
-0.649337 1141.89 779.293 
1.60442 1075.74 767.402 
2.16029 1154.8 786.089 
2.19646 1104.83 773.849 
8.46376 1119.79 781.584 
8.81528 1062.69 763.362 
8.89215 1090.82 778.036 
9.56218 1042.09 745.806 
11.8227 1133.8 785.198 
13.6478 1073.55 775.477 
15.5207 1147.78 788.654 
16.6477 1053.52 753.506 
16.6958 1104.72 782.623 
-32.0283 1173.8 726.206 
-29.6354 1188.56 731.78 
-26.9967 1176.79 742.154 
-19.6327 1167.77 756.983 
-19.4468 1191.89 742.493 
-16.915 1206.69 736.97 
-16.8141 1184.66 757.022 
-12.2203 1172.8 770.244 
-10.0163 1197.7 758.251 
-9.96223 1188.76 771.103 
-8.57591 1218 740.612 
-5.42831 1203.85 773.254 
-2.74859 1174.74 781.89 
-2.17452 1213.78 753.222 
-1.16572 1229.77 745.216 
-0.100574 1188.79 785.2 
0.276705 1217.09 768.255 
0.643994 1209.84 785.328 
3.70261 1224.84 780.238 
5.89671 1167.81 792.149 
6.28346 1242.07 748.664 
7.03218 1201.83 795.955 
7.52493 1231.9 760.337 
8.10228 1217.75 796.083 
8.17706 1181.82 795.94 
8.89826 1235.77 789.21 
10.7135 1238.83 774.241 
13.7449 1231.8 803.274 
13.9322 1249.74 792.241 
14.1284 1253.66 753.018 
15.2722 1206.76 806.824 
15.7734 1191.78 803.29 
18.0205 1253.69 777.232 
18.05 1245.76 807.029 
20.3852 944.79 688.767 
20.7545 983.894 708.144 
23.7473 1014.6 725.566 
31.7059 999.155 717.808 
23.7205 1036.64 740.419 
30.948 1024.13 733.855 
38.6741 1036.5 746.571 
20.6864 1083.74 784.449 
23.556 1062.31 767.597 
23.721 1123.77 788.402 
23.8639 1158.81 795.14 
26.7493 1137.78 792.327 
27.6007 1070.4 779.626 
27.8369 1097.81 789.117 
31.7325 1049.36 755.695 
34.6489 1081.67 791.537 
34.7747 1112.79 792.29 
38.6725 1145.74 796.672 
38.7159 1128.75 794.61 
38.7479 1061.29 769.55 
41.9081 1096.79 796.904 
45.7485 1158.73 800.471 
48.9025 1111.79 799.888 
50.8854 1140.81 803.006 
59.6816 1153.71 806.821 
19.7058 1263.82 798.243 
20.1091 1222.77 812.984 
20.1249 1265.98 758.737 
20.7133 1173.76 796.379 
23.7076 1267.82 784.231 
23.7412 1260.8 812.269 
24.1682 1235.8 817.897 
25.5074 1274.87 807.327 
26.4847 1278.46 762.902 
27.1544 1278.66 793.239 
27.8782 1249.78 821.195 
28.7948 1201.8 810.227 
30.594 1187.67 806.609 
31.4694 1270.69 819.848 
33.8779 1173.86 803.058 
33.8953 1219.91 821.021 
36.9072 1262.8 832.133 
37.8315 1237.83 828.146 
38.1877 1279.97 830.459 
41.6674 1207.68 819.49 
45.4252 1271.68 840.786 
45.5056 1250.62 834.863 
45.761 1185.97 810.779 
48.8407 1223.86 829.053 
48.8456 1172.91 804.91 
54.6492 1200.67 820.467 
55.6371 1237.68 835.607 
56.5446 1258.62 843.783 
61.845 1183.88 814.075 
61.8956 1216.92 831.927 
63.7718 1169.79 810.277 
66.9277 1243.89 844.011 
70.5662 1225.63 839.592 
70.7089 1200.09 825.778 
55.4594 1279.71 849.694 
66.627 1266.72 853.503 
72.4403 1279.69 860.706 
73.6244 1252.67 853.487 
30.5042 1289.92 807.25 
30.9451 1284.73 780.258 
34.5472 1295.89 793.202 
35.2786 1292.66 821.061 
35.2979 1296.68 770.993 
37.084 1304.6 812.34 
38.1312 1305.73 782.232 
40.3046 1310.55 799.316 
41.712 1309.82 826.268 
41.9869 1321.78 781.135 
43.5747 1293.85 835.327 
43.9644 1337.84 787.144 
44.7567 1325.8 796.253 
44.9104 1321.72 817.313 
46.2586 1353.74 795.084 
47.5662 1324.84 832.352 
48.1006 1339.78 803.116 
48.2845 1306.9 840.402 
50.9863 1339.72 829.234 
52.4714 1354.84 810.398 
53.823 1322.78 846.234 
53.857 1367.76 801.185 
56.0416 1352.71 835.237 
57.2416 1367.96 815.271 
57.7549 1339.79 842.278 
58.697 1383.79 806.319 
60.6307 1364.83 843.291 
61.41 1382.87 822.26 
61.6625 1399.75 814.288 
63.8695 1398.8 832.224 
64.1901 1376.89 835.449 
66.1623 1386.7 846.265 
119.033 1400.85 798.226 
120.467 1383.71 789.289 
121.722 1367.74 781.284 
124.501 1387.68 803.374 
124.552 1400.73 812.409 
126.159 1356.03 773.314 
128.092 1372.04 793.975 
130.718 1344.72 764.278 
130.888 1389.89 824.072 
54.0529 1295.83 849.803 
56.7538 1309.79 853.275 
59.7383 1332.81 855.261 
62.8439 1350.78 855.232 
64.8268 1320.8 864.204 
65.4375 1298.69 860.65 
66.8049 1364.79 859.239 
68.3693 1335.85 867.672 
68.8301 1400.79 850.238 
70.2776 1378.74 861.217 
72.407 1351.01 867.721 
73.6053 1309.73 871.458 
74.0296 1393.8 863.021 
74.0979 1323.79 875.971 
75.8254 1291.8 868.215 
77.8292 1364.79 869.187 
79.5462 1382.81 871.594 
81.4466 1342.96 877.771 
84.4437 1328.86 885.662 
84.8434 1397.78 874.157 
88.0944 1368.74 878.986 
91.9499 1346.73 887.151 
91.9872 1382.79 879.969 
97.6087 1359.89 889.311 
97.8135 1396.78 882.196 
102.857 1374.76 889.139 
109.927 1392.71 891.103 
62.283 1413.83 824.208 
64.8413 1429.79 831.238 
65.9174 1413.79 839.181 
70.5313 1428.89 845.382 
70.811 1442.78 835.229 
81.8556 1443.69 846.115 
92.7524 1451.61 839.122 
106.552 1445.44 841.923 
109.826 1444.9 824.17 
115.667 1434.65 815.397 
117.811 1435.81 832.245 
118.302 1420.01 806.924 
121.585 1430.68 846.247 
123.134 1420.9 821.227 
127.393 1417.69 837.336 
128.31 1406.72 825.244 
71.3332 1414.93 853.479 
77.5766 1411.87 866.371 
80.005 1429.61 857.01 
87.779 1421.81 871.254 
92.5954 1434.17 862.733 
95.6548 1410.08 874.58 
102.735 1421.29 863.46 
106.772 1439.19 859.243 
109.924 1410.4 879.833 
117.736 1420.49 866.168 
124.434 1413.37 882.333 
131.784 1417.86 870.258 
133.499 1374.79 807.284 
135.063 1359.05 790 
135.162 1333.09 756.035 
138.662 1347.67 780.33 
138.733 1376.75 821.341 
138.733 1360.75 813.565 
138.737 1400.73 835.326 
139.13 1320.5 748.588 
142.562 1336.29 768.525 
142.682 1347.64 808.497 
145.727 1334.55 801.54 
145.93 1385.98 829.918 
148.689 1318.92 762.299 
149.656 1321.89 790.182 
153.007 1318.51 776.253 
153.689 1367.03 821.834 
156.662 1349.38 811.86 
147.702 1404.84 846.138 
140.625 1413.83 859.105 
