ply
format ascii 1.0
comment Author: CloudCompare (TELECOM PARISTECH/EDF R&D)
obj_info Generated by CloudCompare!
element vertex 261
property float x
property float y
property float z
end_header
-365.216 795.799 470.246 
-358.304 795.704 487.427 
-351.344 795.416 462.552 
-348.067 781.014 459.876 
-347.166 785.873 485.186 
-335.382 793.73 459.824 
-335.23 777.723 484.249 
-333.313 790.619 493.92 
-332.333 778.726 457.954 
-328.238 792.863 447.099 
-323.929 761.075 489.133 
-323.365 778.646 494.298 
-324.234 789.718 508.023 
-359.224 807.713 478.262 
-346.287 808.189 470.974 
-344.209 808.435 486.246 
-331.266 809.484 479.221 
-326.266 803.561 465.455 
-321.018 767.075 459.525 
-318.185 782.806 451.39 
-310.354 757.463 482.297 
-310.259 795.036 451.739 
-308.36 764.519 494.912 
-308.301 757.58 464.121 
-306.322 770.54 451.68 
-299.217 782.794 448.176 
-295.413 756.295 493.698 
-295.323 759.617 455.905 
-295.228 750.482 468.863 
-292.213 795.798 451.236 
-288.484 745.269 486.675 
-288.257 770.734 448.035 
-281.293 751.542 461.025 
-281.231 785.851 446.977 
-277.245 751.696 495.318 
-276.248 760.612 450.925 
-274.242 740.617 486.221 
-270.249 794.56 451.543 
-270.212 775.802 445.385 
-267.217 749.785 457.228 
-263.244 747.679 495.327 
-260.342 736.441 477.231 
-259.251 762.647 447.903 
-256.281 779.878 445.454 
-256.186 796.135 454.931 
-253.348 735.393 491.468 
-252.354 745.685 452.901 
-245.33 737.284 479.226 
-244.233 763.798 447.055 
-242.171 788.963 450.978 
-241.26 738.639 462.099 
-238.223 736.095 495.346 
-238.208 750.826 451.312 
-234.242 774.78 446.656 
-231.235 795.281 458.697 
-230.991 732.26 480.394 
-227.285 740.642 454.985 
-227.282 758.972 445.07 
-223.247 733.672 494.26 
-223.217 785.824 451.185 
-218.168 730.982 462.337 
-216.331 771.852 445.762 
-216.234 795.631 460.371 
-213.216 743.782 450.194 
-209.322 726.488 487.313 
-209.314 757.695 444.557 
-310.339 783.704 501.457 
-295.995 781.064 504.931 
-288.289 766.512 503.695 
-281.308 778.644 508.619 
-271.486 793.133 509.028 
-271.178 763.87 505.09 
-263.221 776.793 511.309 
-256.296 758.619 506.723 
-249.288 770.713 511.638 
-247.251 746.682 500.368 
-238.355 754.503 509.757 
-234.033 773.766 514.76 
-227.271 745.661 506.356 
-227.177 796.043 504.164 
-223.263 758.699 513.62 
-219.224 775.788 516.334 
-215.121 792.889 514.201 
-213.369 740.376 506.528 
-209.19 752.804 514.042 
-320.179 811.037 492.202 
-317.26 814.571 474.333 
-313.242 807.218 459.757 
-302.307 812.479 477.271 
-299.261 808.472 463.424 
-289.62 814.979 487.764 
-288.262 810.247 473.398 
-281.247 803.422 459.483 
-277.233 807.382 487.159 
-270.25 807.308 472.306 
-259.255 806.229 488.16 
-256.272 804.248 467.495 
-245.306 805.207 477.293 
-245.22 803.633 492.178 
-238.24 816.724 470.658 
-231.229 804.105 484.332 
-219.278 812.954 495.896 
-219.207 802.829 473.218 
-213.172 800.991 490.243 
-206.196 784.012 450.952 
-204.016 728.226 459.641 
-198.331 722.504 477.238 
-198.325 746.696 445.948 
-198.262 792.509 460.481 
-198.236 768.69 444.661 
-195.318 725.367 494.5 
-191.341 780.471 451.647 
-191.264 734.613 451.025 
-190.29 723.27 463.852 
-186.179 756.842 443.859 
-184.324 718.443 484.382 
-184.283 795.381 465.573 
-180.276 771.628 448.559 
-178.131 717.319 470.517 
-177.245 784.633 455.428 
-177.237 741.873 445.646 
-173.27 716.651 494.287 
-170.264 757.749 445.657 
-170.214 795.8 470.238 
-166.387 711.219 482.232 
-166.312 774.607 451.573 
-162.257 744.822 446.647 
-162.226 788.21 460.751 
-160.132 796.033 494.266 
-157.36 710.412 494.358 
-155.34 712.442 469.129 
-155.332 764.597 448.727 
-155.25 795.665 473.303 
-152.295 778.553 455.626 
-148.503 751.621 445.661 
-148.355 706.342 481.123 
-145.323 793.266 490.086 
-145.121 736.89 448.475 
-144.28 714.47 459.917 
-141.366 787.467 470.46 
-141.308 704.488 495.312 
-137.383 777.347 459.648 
-137.323 705.463 470.11 
-137.254 762.699 450.579 
-134.316 725.515 451.762 
-130.477 787.237 480.379 
-130.202 749.814 449.017 
-130.202 700.855 483.243 
-129.206 712.942 459.422 
-127.097 784.202 495.388 
-124.267 778.662 469.343 
-123.365 768.461 457.645 
-119.24 702.494 473.123 
-119.239 724.907 452.594 
-119.214 700.836 494.232 
-118.165 741.799 449.802 
-116.083 780.034 486.259 
-112.35 757.566 454.692 
-112.275 710.031 462.474 
-109.412 771.437 469.544 
-109.137 699.199 483.189 
-106.473 771.451 495.138 
-105.211 728.782 451.211 
-101.316 745.708 453.585 
-101.231 701.429 495.289 
-101.217 705.895 471.267 
-98.4241 767.499 478.331 
-98.3312 760.65 465.362 
-98.2618 717.251 456.816 
-203.445 781.722 519.626 
-202.363 765.713 517.651 
-198.332 737.436 508.673 
-191.26 748.644 515.676 
-188.23 766.789 524.269 
-184.351 731.496 508.655 
-178.141 784.143 508.583 
-177.312 757.661 520.725 
-174.259 772.509 522.895 
-173.345 742.651 516.832 
-171.348 724.513 508.551 
-164.13 786.76 512.117 
-162.224 760.791 524.444 
-161.344 739.679 526.695 
-159.035 728.109 515.765 
-156.174 773.104 516.514 
-155.392 716.399 507.571 
-150.76 789.28 503.218 
-149.262 725.727 526.379 
-148.269 748.603 524.645 
-144.234 762.715 521.1 
-142.271 778.688 515.193 
-141.375 712.323 509.602 
-137.285 716.584 523.439 
-137.228 738.741 526.919 
-133.146 752.913 522.586 
-130.275 767.587 518.937 
-127.159 775.987 507.429 
-127.153 708.092 509.036 
-126.369 728.818 526.666 
-120.249 758.815 526.407 
-119.56 743.73 525.663 
-119.241 713.433 520.762 
-112.265 705.295 510.074 
-110.328 727.684 526.613 
-105.258 745.867 529.821 
-101.227 711.699 519.312 
-98.2027 771.586 507.438 
-96.109 688.94 504.32 
-203.353 811.769 489.984 
-202.262 802.497 477.253 
-191.242 801.419 495.088 
-184.304 801.246 479.455 
-175.301 800.255 495.069 
-173.21 811.739 482.93 
-51.2977 675.06 510.983 
-40.3186 668.441 502.557 
-94.4807 763.439 493.147 
-91.2517 732.759 453.466 
-91.2264 700.199 483.134 
-89.2286 749.775 462.265 
-87.9978 713.313 467.011 
-87.4439 688.607 492.077 
-86.2322 758.762 480.243 
-83.1954 696.925 471.224 
-80.3436 757.587 495.319 
-80.2833 722.851 454.649 
-78.0372 738.997 461.981 
-76.8626 748.179 476.104 
-75.838 685.078 475.526 
-73.2681 709.632 467.09 
-69.5621 747.401 489.343 
-66.918 728.143 461.829 
-66.0463 738.019 475.102 
-66.0012 697.698 473.541 
-58.2809 708.713 463.669 
-56.502 733.371 488.341 
-55.2857 724.724 471.281 
-50.3208 719.67 494.198 
-46.839 714.015 476.169 
-44.4944 700.721 468.628 
-43.3167 706.738 495.244 
-94.2748 728.788 528.75 
-92.3171 702.464 509.488 
-90.303 745.808 529.945 
-87.4504 765.381 517.378 
-87.3384 715.078 523.75 
-83.229 694.421 520.399 
-80.3269 732.814 526.004 
-80.2947 690.729 505.258 
-80.2861 751.773 519.156 
-73.2566 709.799 521.162 
-71.0551 749.957 504.252 
-69.246 723.648 523.552 
-68.2865 742.489 520.483 
-65.1649 684.924 512.12 
-62.3978 700.964 516.766 
-62.3447 738.683 501.248 
-55.3146 728.7 510.266 
-55.278 715.646 520.624 
-49.2315 695.762 512.287 
-40.9133 687.007 504.242 
