ply
format ascii 1.0
comment Author: CloudCompare (TELECOM PARISTECH/EDF R&D)
obj_info Generated by CloudCompare!
element vertex 1735
property float x
property float y
property float z
property float scalar_Original_cloud_index
end_header
38.2014 -37.7578 -167.267 5 
41.6926 37.6452 -89.6383 5 
44.8725 15.1537 -113.149 5 
45.7386 -18.4279 -144.499 5 
45.7647 25.2925 -101.208 5 
45.7943 -3.88382 -131.117 5 
52.6312 -34.7877 -159.291 5 
52.6522 6.13767 -123.075 5 
53.6347 69.6458 -94.5057 5 
54.9333 39.9084 -118.881 5 
56.1796 44.4724 -89.5264 5 
56.2796 35.9807 -101.952 5 
57.4969 26.4778 -125.435 5 
57.7169 -7.15222 -139.833 5 
58.8417 -22.2197 -152.736 5 
60.7334 10.8046 -134.772 5 
62.3992 -24.212 -167.826 5 
62.7317 -33.1452 -180.134 5 
63.701 -50.58 -201.282 5 
23.7373 69.7875 -76.7518 5 
30.7546 56.7488 -76.6952 5 
32.5385 69.776 -49.1583 5 
34.174 67.0444 -65.9393 5 
45.5182 57.7833 -70.093 5 
55.7438 67.8112 -73.7821 5 
27.5596 81.9935 -88.0101 5 
20.2206 157.26 16.7741 5 
21.1287 134.953 -11.8694 5 
21.2565 99.5962 -42.8162 5 
23.818 90.8074 -55.7678 5 
26.4766 113.822 -62.0119 5 
26.7802 174.992 -11.065 5 
27.5123 110.52 -30.5144 5 
27.546 147.345 8.58735 5 
27.6088 164.439 27.644 5 
30.8352 157.837 -23.7896 5 
30.8849 186.008 -0.954944 5 
31.7229 124.484 -14.4736 5 
31.7925 136.031 -1.98146 5 
34.716 98.5896 -37.5297 5 
36.0546 120.906 -73.5066 5 
37.8323 102.792 -73.7174 5 
38.6048 153.239 16.8312 5 
38.6788 86.2922 -48.2968 5 
40.0884 175.015 -5.17942 5 
40.7896 190.527 13.508 5 
41.7017 114.197 -23.2146 5 
41.7874 167.796 28.2446 5 
44.543 145.132 2.95142 5 
44.554 133.1 -9.08211 5 
46.6342 189.815 27.1739 5 
47.5885 85.2185 -85.2427 5 
47.7092 75.1051 -59.132 5 
48.6351 105.061 -35.0737 5 
48.6439 177.775 12.2459 5 
48.8764 100.913 -83.6647 5 
49.1815 163.579 16.518 5 
49.2495 157.653 -3.71125 5 
52.5513 93.0649 -47.0943 5 
52.6369 125.017 -20.0244 5 
25.3137 189.344 48.7398 5 
26.652 178.711 38.39 5 
38.5206 185.143 43.8466 5 
25.6539 199.201 20.0518 5 
27.7444 211.553 27.451 5 
40.8708 203.922 27.1424 5 
20.5286 210.465 64.5607 5 
20.7589 277.484 130.493 5 
20.7631 224.728 78.3081 5 
20.7696 274.622 89.5022 5 
21.7611 248.898 64.1193 5 
23.7229 263.623 80.3998 5 
26.0908 303.796 109.528 5 
27.6008 264.336 117.9 5 
27.6184 296.286 143.894 5 
27.8464 233.216 87.8107 5 
28.6672 199.601 59.485 5 
29.9854 229.13 48.6753 5 
30.9106 250.319 106.632 5 
30.912 279.908 99.0915 5 
31.7006 274.728 75.5943 5 
33.4761 287.042 130.953 5 
34.6178 240.577 58.7072 5 
34.6949 217.697 39.3512 5 
34.7181 255.561 68.5874 5 
34.7768 211.893 70.1199 5 
36.4244 310.816 145.194 5 
36.9436 269.463 128.478 5 
38.7687 224.88 81.1449 5 
38.7776 240.874 95.1592 5 
41.6733 203.098 52.8761 5 
41.7434 260.871 113.164 5 
45.6401 229.041 68.9017 5 
45.6735 232.195 54.0129 5 
45.7558 244.784 67.2861 5 
45.7607 251.841 102.196 5 
47.9387 236.712 82.2498 5 
48.8498 214.92 61.0388 5 
49.9701 272.485 120.469 5 
23.5115 321.761 112.965 5 
20.6275 366.124 210.907 5 
20.7039 354.006 199.017 5 
20.7061 395.09 235.87 5 
20.7841 322.943 170.095 5 
22.2157 390.26 206.813 5 
22.5603 411.626 228.478 5 
23.8102 376.832 195.207 5 
23.8769 343.544 188.517 5 
25.6566 379.945 220.065 5 
26.6691 365.635 185.4 5 
27.5241 354.463 174.552 5 
27.6395 336.438 155.598 5 
28.0784 333.447 177.686 5 
30.9177 405.721 239.302 5 
30.9272 315.653 159.424 5 
20.881 432.474 271.518 5 
-312.259 1440.06 1217.88 6 
-310.216 1446.81 1231.21 6 
-301.232 1455.82 1241.3 6 
-294.245 1464.85 1254.17 6 
-281.178 1470.99 1261.15 6 
-267.186 1467.62 1257.17 6 
-255.229 1467.66 1266.38 6 
-246.194 1503.81 1282.28 6 
-241.226 1459.77 1263.2 6 
-231.23 1498.48 1285.49 6 
-227.214 1454.8 1264.25 6 
-217.414 1491.42 1282.24 6 
-214.289 1448.95 1268.04 6 
-236.278 1495.48 1355.32 6 
-224.746 1490.12 1346.5 6 
-216.994 1507.43 1315.73 6 
-216.267 1491.55 1427.06 6 
-216.261 1476.85 1333.19 6 
-211.292 1494.53 1413.26 6 
-209.478 1528.73 1347.08 6 
-196.198 1363.78 1380.24 6 
-193.482 1380.37 1361.74 6 
-187.329 1396.73 1351.02 6 
-180.134 1385.65 1358.87 6 
-205.206 1502.86 1308.23 6 
-202.32 1485.54 1279.3 6 
-199.153 1461.87 1304.31 6 
-198.186 1449.01 1270.12 6 
-198.163 1509.89 1293.23 6 
-191.269 1498.49 1307.21 6 
-189.229 1454.63 1292.55 6 
-188.86 1438.42 1274.08 6 
-188.219 1478.76 1282.22 6 
-182.212 1510.8 1313.24 6 
-180.4 1445.98 1284.92 6 
-180.248 1419.99 1309.49 6 
-178.838 1426.43 1295.86 6 
-178.282 1489.84 1304.17 6 
-177.912 1504.65 1271.82 6 
-175.331 1471.59 1283.22 6 
-173.738 1510.27 1240.02 6 
-173.354 1438.51 1270.2 6 
-173.206 1469.73 1313.25 6 
-171.423 1494.6 1246.04 6 
-170.434 1469.36 1298.34 6 
-168.271 1459.11 1279.75 6 
-167.383 1467.42 1261.73 6 
-166.538 1509.24 1311.91 6 
-165.608 1429.48 1258.31 6 
-164.212 1482.79 1295.24 6 
-162.339 1447.99 1270.93 6 
-162.209 1481.79 1253.24 6 
-159.986 1417.88 1248.25 6 
-159.669 1509.61 1245.16 6 
-159.557 1521.85 1231.3 6 
-152.425 1490.2 1300.92 6 
-152.247 1461.87 1280.23 6 
-145.377 1468.95 1295.14 6 
-141.257 1495.88 1313.22 6 
-137.793 1477.38 1284.4 6 
-137.324 1475.97 1305.15 6 
-130.763 1489.34 1289.07 6 
-128.381 1487.87 1310.37 6 
-113.53 1447.05 1289.93 6 
-111.503 1482.91 1249.29 6 
-110.52 1460.02 1300.02 6 
-105.471 1468.72 1255.5 6 
-102.114 1481.81 1263.14 6 
-99.6777 1454.1 1283.9 6 
-95.681 1467.74 1266.56 6 
-207.319 1470 1321.82 6 
-207.291 1492.61 1394.21 6 
-200.512 1491.27 1380.91 6 
-196.187 1491.82 1361.27 6 
-194.274 1518.85 1330.17 6 
-191.23 1489.71 1342.22 6 
-186.401 1408.64 1335.94 6 
-185.269 1490.62 1327.11 6 
-182.217 1477.78 1412.25 6 
-180.808 1471.25 1389.71 6 
-179.349 1413.14 1322.49 6 
-178.247 1469.75 1368.21 6 
-176.929 1509.46 1337.41 6 
-175.621 1479.22 1426.26 6 
-175.255 1502.81 1324.22 6 
-174.127 1470.04 1329.42 6 
-173.947 1468.42 1348.49 6 
-173.414 1521.03 1363.1 6 
-169.673 1519.43 1348.5 6 
-169.157 1472.63 1379.3 6 
-158.395 1519.14 1319.06 6 
-130.244 1505.87 1322.17 6 
-119.918 1495.54 1321.32 6 
-115.411 1504.42 1333.99 6 
-109.07 1514.67 1342.44 6 
-167.197 1580.18 1196.1 6 
-158.001 1590.65 1185.42 6 
-149.215 1594.14 1172.26 6 
-142.194 1597.79 1158.26 6 
-139.182 1596.81 1143.25 6 
-135.176 1588.8 1129.26 6 
-188.058 1561.59 1242.7 6 
-174.262 1527.9 1227.47 6 
-174.225 1561.95 1211.37 6 
-173.902 1545.5 1218.08 6 
-161.34 1544.72 1228.2 6 
-161.044 1559.78 1217.4 6 
-180.328 1533.82 1330.13 6 
-177.241 1547.82 1338.22 6 
-172.247 1527.67 1378.26 6 
-169.251 1535.95 1393.17 6 
-151.208 1531.76 1325.26 6 
-141.441 1541.06 1331.1 6 
-109.035 1529.67 1343.27 6 
-102.473 1540.54 1350.73 6 
-93.5024 1536.11 1362.07 6 
-87.2543 1575.39 1409.29 6 
-87.196 1546.71 1372.24 6 
-86.2138 1558.49 1383.22 6 
-79.3224 1569.94 1394.19 6 
-514.417 190.897 -94.2416 7 
-509.349 174.903 -102.237 7 
-503.001 160.702 -107.195 7 
-500.301 187.799 -105.868 7 
-495.225 145.791 -112.806 7 
-494.204 174.796 -109.743 7 
-488.162 187.799 -116.702 7 
-487.208 131.798 -114.75 7 
-486.218 160.795 -112.782 7 
-479.191 146.795 -112.499 7 
-478.245 119.908 -117.477 7 
-477.439 105.855 -110.98 7 
-519.262 204.834 -88.8873 7 
-511.553 218.906 -87.9774 7 
-506.357 204.818 -98.9042 7 
-503.231 229.802 -94.7644 7 
-501.172 243.782 -88.7484 7 
-500.352 221.795 -106.767 7 
-499.627 232.895 -116.807 7 
-497.105 244.759 -108.754 7 
-495.121 217.84 -120.68 7 
-494.858 254.741 -97.7702 7 
-494.601 203.664 -113.079 7 
-492.224 268.799 -94.7592 7 
-489.909 261.763 -109.456 7 
-482.476 279.379 -96.99 7 
-473.48 287.255 -87.9564 7 
-521.25 222.834 -77.8092 7 
-517.44 233.008 -66.9074 7 
-515.094 244.728 -56.7082 7 
-513.731 262.204 -44.3598 7 
-509.72 233.044 -80.9897 7 
-508.509 244.961 -69.9445 7 
-506.566 272.056 -33.8155 7 
-505.552 258.001 -59.9325 7 
-503.959 283.694 -24.6113 7 
-502.124 272.714 -48.697 7 
-499.573 257.964 -73.8954 7 
-497.066 283.643 -38.6742 7 
-494.721 272.426 -63.5385 7 
-493.469 289.134 -15.5478 7 
-491.503 272.946 -77.8172 7 
-490.005 283.577 -52.6591 7 
-489.539 293.286 -29.9434 7 
-486.333 283.887 -68.777 7 
-482.598 294.267 -42.9247 7 
-482.503 299.18 -18.6439 7 
-479.711 294.225 -59.8897 7 
-475.585 303.255 -32.9031 7 
-473.163 304.758 -47.76 7 
-471.99 294.553 -72.5942 7 
-471.336 300.924 -8.57154 7 
-468.389 309.976 -20.7163 7 
-468.213 307.795 -61.7592 7 
-463.394 312.131 -34.8461 7 
-461.263 288.065 -1.62727 7 
-461.153 296.703 -83.6995 7 
-460.267 311.859 -8.70874 7 
-458.316 311.854 -73.8553 7 
-443.841 297.601 3.74261 7 
-462.81 319.509 -48.7304 7 
-458.412 322.916 -62.829 7 
-457.206 319.786 -21.757 7 
-456.782 327.099 -37.5525 7 
-453.998 332.676 -52.7245 7 
-450.855 340.622 -40.8141 7 
-449.26 333.823 -26.7407 7 
-449.154 322.727 -8.80178 7 
-447.982 344.666 -59.6217 7 
-446.655 353.969 -47.7273 7 
-443.226 347.802 -30.7515 7 
-440.179 365.778 -40.7667 7 
-440.104 313.694 2.02676 7 
-439.936 337.594 -15.9597 7 
-433.845 292.281 12.894 7 
-428.898 309.632 11.9613 7 
-423.342 301.841 23.3257 7 
-415.659 306.933 34.529 7 
-407.223 310.81 47.2511 7 
-331.695 312.231 68.6381 7 
-436.037 328.659 -2.02513 7 
-433.677 362.981 -26.4244 7 
-429.197 351.782 -15.7755 7 
-428.262 376.843 -27.696 7 
-428.091 340.636 -4.84642 7 
-425.283 326.842 8.31619 7 
-419.155 365.713 -15.8769 7 
-418.072 319.74 20.1274 7 
-417.95 351.611 -6.0183 7 
-417.217 340.82 5.2352 7 
-412.045 376.244 -28.8818 7 
-410.813 334.288 16.7536 7 
-404.214 367.797 -13.7577 7 
-403.362 348.178 6.62412 7 
-400.137 332.652 27.1075 7 
-397.951 369.249 -29.7328 7 
-396.267 359.092 -2.47579 7 
-392.274 343.967 16.3972 7 
-389.349 365.381 -14.8432 7 
-385.365 361.542 -28.6751 7 
-385.252 352.394 5.58644 7 
-382.14 339.464 26.0801 7 
-378.179 359.898 -5.74469 7 
-374.271 347.158 16.4433 7 
-373.186 352.85 -30.7808 7 
-367.285 353.646 -16.7142 7 
-364.22 340.9 28.2953 7 
-364.079 355.227 -0.720257 7 
-360.296 350.332 13.0742 7 
-356.257 348.383 -24.7035 7 
-350.146 351.05 1.31558 7 
-349.352 342.25 22.6151 7 
-346.234 349.4 -12.6879 7 
-341.27 350.99 -27.6862 7 
-338.285 345.439 12.2647 7 
-335.248 348.466 -1.79623 7 
-335.243 341.594 27.2006 7 
-331.297 351.099 -16.6809 7 
-324.231 346.129 8.40108 7 
-403.462 322.219 37.5827 7 
-392.423 315.272 52.6022 7 
-389.275 327.936 38.3776 7 
-380.097 317.49 60.0494 7 
-375.105 333.461 38.0445 7 
-370.376 326.183 52.414 7 
-368.389 322.2 67.269 7 
-360.314 335.169 43.394 7 
-357.061 329.382 60.1745 7 
-352.19 327.939 74.2843 7 
-347.215 338.83 37.243 7 
-346.259 335.182 52.3392 7 
-340.007 326.023 66.4846 7 
-331.411 332.354 52.9002 7 
-324.725 320.222 57.777 7 
-324.185 336.973 39.2547 7 
-236.759 312.245 -16.7803 7 
-236.339 265.204 28.7295 7 
-228.074 311.892 0.155928 7 
-227.065 312.149 28.5825 7 
-227.021 300.953 -16.7342 7 
-222.329 261.473 27.7394 7 
-220.426 297.669 -2.62345 7 
-218.824 285.953 -14.8213 7 
-217.048 308.058 16.2755 7 
-211.333 271.738 -10.7264 7 
-209.769 283.042 -0.105264 7 
-317.656 304.509 62.822 7 
-306.551 294.338 59.8734 7 
-306.398 311.613 52.79 7 
-295.462 288.682 51.9636 7 
-292.408 308.661 47.7732 7 
-284.378 295.721 44.9561 7 
-280.036 279.226 43.3744 7 
-279.315 311.751 41.0676 7 
-270.306 296.703 39.8848 7 
-264.476 276.817 39.6644 7 
-259.22 305.762 37.0631 7 
-256.284 289.74 38.9905 7 
-252.275 269.976 34.8588 7 
-247.132 311.987 31.2309 7 
-241.287 281.885 37.2362 7 
-241.242 296.656 37.8953 7 
-227.286 291.935 36.7623 7 
-224.211 275.855 33.0081 7 
-216.216 303.78 36.1825 7 
-213.203 285.804 36.1709 7 
-209.33 269.677 33.6432 7 
-320.236 340.48 23.0481 7 
-318.048 358.503 -18.9832 7 
-317.264 350.958 -5.66115 7 
-310.217 343.483 11.9853 7 
-308.203 332.823 27.196 7 
-303.181 350.656 1.14626 7 
-295.324 341.234 15.6766 7 
-292.232 327.745 28.2553 7 
-291.258 369.077 -6.40368 7 
-289.358 356.087 2.66595 7 
-281.264 336.353 22.018 7 
-277.994 362.02 -5.65184 7 
-277.301 323.47 27.9913 7 
-277.254 350.568 9.00284 7 
-269.069 350.906 -12.7927 7 
-267.349 340.368 15.8563 7 
-263.306 328.401 25.7133 7 
-263.23 344.779 -0.7578 7 
-259.993 337.989 -15.8253 7 
-252.875 334.246 8.20302 7 
-250.273 329.741 -8.73561 7 
-249.204 326.814 21.2513 7 
-241.268 324.684 7.28062 7 
-313.327 326.473 46.7562 7 
-299.301 322.675 44.9883 7 
-207.536 297.505 9.56299 7 
-203.484 260.709 -5.56605 7 
-203.394 256.313 28.6125 7 
-203.197 300.828 28.2553 7 
-198.938 275.932 6.92044 7 
-195.326 290.68 17.2939 7 
-195.139 249.823 1.20484 7 
-188.372 260.715 9.41133 7 
-187.184 239.793 8.17917 7 
-184.586 280.424 15.6016 7 
-184.23 290.761 28.2312 7 
-177.398 250.759 14.5544 7 
-173.463 270.628 16.5895 7 
-171.051 278.984 28.7454 7 
-167.166 236.047 16.0266 7 
-162.295 251.828 18.6747 7 
-159.305 267.719 21.6553 7 
-158.212 228.839 5.21131 7 
-152.298 241.045 15.8148 7 
-151.367 221.024 -6.07579 7 
-148.235 256.852 20.8209 7 
-141.368 232.226 6.72146 7 
-137.327 220.408 -14.1516 7 
-137.263 246.389 15.7868 7 
-134.361 274.395 28.4432 7 
-134.265 256.645 27.5905 7 
-130.261 226.13 -1.00566 7 
-126.256 238.475 10.6284 7 
-126.183 216.648 -23.6592 7 
-123.448 252.391 17.6815 7 
-120.104 265.04 24.0099 7 
-119.248 222.182 -10.0125 7 
-114.108 239.941 20.2389 7 
-112.345 231.242 2.52127 7 
-112.258 217.382 -28.9175 7 
-109.169 255.899 20.0425 7 
-105.219 220.049 -15.9175 7 
-102.004 238.139 12.1142 7 
-98.3941 216.247 -34.7734 7 
-98.3207 226.495 0.430399 7 
-98.234 263.717 28.304 7 
-198.33 279.725 38.637 7 
-194.306 264.075 39.4292 7 
-184.507 252.598 34.5954 7 
-184.249 283.853 41.6435 7 
-180.177 269.798 43.1292 7 
-170.221 251.783 42.2597 7 
-166.33 265.812 46.5674 7 
-166.232 284.236 41.7067 7 
-155.434 250.598 48.5876 7 
-152.27 270.988 47.6368 7 
-152.138 283.171 38.3933 7 
-144.288 259.893 52.6399 7 
-137.253 272.566 47.0032 7 
-130.258 254.693 57.0493 7 
-123.329 268.385 48.7686 7 
-116.206 254.793 53.303 7 
-112.363 271.2 36.2478 7 
-105.296 263.503 48.9774 7 
-56.0351 190.986 -3.75962 7 
-44.5471 179.521 -10.8701 7 
-42.007 190.972 -36.7589 7 
-39.1653 190.862 -52.736 7 
-37.2685 187.741 -22.7451 7 
-33.8666 168.102 -17.7589 7 
-30.415 180.53 -33.8323 7 
-26.3304 184.576 -47.8202 7 
-24.1147 156.886 -23.773 7 
-21.3345 171.685 -26.7956 7 
-15.807 147.023 -31.598 7 
-15.7304 171.315 -41.3647 7 
-15.2438 182.685 -57.8113 7 
-7.49852 135.642 -38.8492 7 
-4.36817 174.571 -51.9509 7 
-0.077256 124.895 -45.7592 7 
2.64686 146.694 -9.64698 7 
7.06277 131.963 -19.8181 7 
16.7198 118.755 -22.7206 7 
-94.3171 249.465 18.7586 7 
-94.2702 225.661 15.3886 7 
-91.2159 216.779 -21.7535 7 
-84.0649 215.244 -38.6776 7 
-84.0533 223.181 0.98357 7 
-83.3144 259.398 26.4586 7 
-83.2583 240.528 14.6378 7 
-80.1884 215.843 -11.7613 7 
-77.9423 211.115 7.24612 7 
-74.0429 211.163 -25.7802 7 
-73.2812 230.644 10.4721 7 
-66.0877 202.111 3.86078 7 
-66.0037 208.243 -13.7457 7 
-65.2549 219.61 4.58809 7 
-62.209 211.389 -35.8669 7 
-52.2369 207.557 -1.29946 7 
-52.2039 203.821 -16.7494 7 
-48.1459 205.847 -30.7493 7 
-91.228 258.843 50.2876 7 
20.4476 147.612 -77.8705 7 
20.5286 210.465 64.5607 8 
29.9854 229.13 48.6753 8 
31.7006 274.728 75.5943 8 
34.6178 240.577 58.7072 8 
34.7768 211.893 70.1199 8 
38.7687 224.88 81.1449 8 
38.7776 240.874 95.1592 8 
40.4687 288.971 79.5588 8 
45.6199 269.662 78.6198 8 
45.6401 229.041 68.9017 8 
45.6735 232.195 54.0129 8 
45.7558 244.784 67.2861 8 
45.8396 301.808 87.0661 8 
47.9387 236.712 82.2498 8 
48.8498 214.92 61.0388 8 
52.4668 281.588 84.8459 8 
55.237 251.148 91.1348 8 
57.7587 311.804 90.2792 8 
59.6253 223.968 65.1656 8 
59.6693 241.234 71.8613 8 
59.6932 293.751 90.4629 8 
59.7466 268.893 82.1391 8 
65.7337 252.119 80.9085 8 
66.8107 280.966 88.7696 8 
70.6743 301.774 96.4371 8 
70.7079 266.508 93.7438 8 
71.1068 289.515 120.48 8 
74.5319 279.193 102.811 8 
78.8047 304.768 127.269 8 
81.716 290.019 109.963 8 
84.6776 271.629 95.5771 8 
88.8026 300.731 117.325 8 
91.9603 277.355 107.657 8 
92.6521 312.048 126.025 8 
99.8021 292.821 111.106 8 
101.521 308.899 114.506 8 
108.776 300.775 124.289 8 
117.647 310.542 130.835 8 
66.583 327.987 88.4379 8 
76.6992 320.851 97.3615 8 
84.7702 321.816 137.201 8 
88.7801 350.759 145.291 8 
91.6209 335.979 96.3995 8 
92.6765 336.006 139.656 8 
95.9206 325.709 108.09 8 
99.6773 323.063 132.802 8 
102.73 346.441 144.649 8 
104.925 340.644 103.084 8 
108.398 325.939 116.715 8 
108.857 352.756 89.2327 8 
110.715 334.418 137.847 8 
117.091 354.567 101.1 8 
117.178 344.556 113.055 8 
119.842 333.75 124.178 8 
121.544 367.896 97.3628 8 
121.782 341.627 144.449 8 
124.727 327.713 136.463 8 
127.874 361.719 111.155 8 
128.429 347.102 123.612 8 
131.513 377.125 102.599 8 
99.7515 355.586 156.363 8 
111.749 358.61 166.265 8 
113.79 351.629 152.434 8 
116.841 367.548 193.389 8 
120.757 362.513 179.307 8 
127.883 354.422 157.529 8 
128.788 369.54 201.352 8 
134.289 339.461 136.971 8 
138.691 358.896 121.341 8 
142.665 370.154 112.556 8 
143.61 351.974 135.333 8 
148.255 337.374 143.947 8 
151.996 362.427 128.029 8 
156.688 360.917 143.253 8 
156.782 373.814 113.254 8 
164.925 369.58 128.166 8 
167.755 382.925 104.319 8 
168.994 369.471 145.291 8 
174.617 379.128 118.405 8 
181.865 376.641 145.263 8 
185.749 384.47 109.142 8 
185.757 378.946 129.269 8 
194.831 383.737 145.257 8 
199.566 384.052 131.162 8 
199.803 382.708 112.239 8 
203.121 398.66 145.305 8 
206.535 398.836 131.182 8 
210.388 409.893 121.188 8 
210.427 391.922 116.066 8 
210.765 410.816 139.244 8 
219.746 420.98 120.288 8 
224.85 417.228 137.084 8 
235.674 419.216 125.301 8 
238.742 418.242 141.352 8 
135.589 367.357 185.072 8 
135.701 361.069 168.099 8 
137.77 347.881 149.132 8 
141.777 370.321 208.217 8 
145.963 357.433 156.552 8 
149.676 368.09 174.139 8 
149.732 371.094 190.243 8 
156.669 372.26 204.243 8 
156.773 346.92 154.019 8 
159.815 369.633 218.228 8 
160.728 367.953 163.192 8 
163.797 373.773 184.242 8 
167.442 356.935 153.697 8 
170.982 376.437 170.352 8 
171.69 376.085 200.282 8 
174.697 373.047 215.415 8 
178.435 381.347 188.385 8 
178.497 364.072 160.395 8 
181.461 380.11 160.399 8 
184.914 380.462 207.106 8 
185.602 386.193 176.115 8 
188.856 368.398 224.999 8 
192.523 390.211 190.319 8 
192.68 389.937 161.182 8 
196.744 377.963 216.411 8 
199.721 381.924 172.158 8 
199.739 387.891 204.288 8 
203.075 400.458 163.221 8 
203.486 398.223 185.249 8 
207.787 369.858 223.313 8 
210.734 383.94 214.382 8 
210.974 391.613 173.002 8 
213.614 409.102 157.313 8 
214.076 401.249 194.852 8 
215.905 405.66 175.143 8 
222.686 391.138 210.478 8 
224.921 410.581 191.148 8 
226.731 373.743 220.858 8 
228.477 415.401 173.096 8 
228.753 415.933 153.242 8 
232.695 403.937 203.389 8 
235.764 385.932 217.602 8 
237.994 418.498 194.104 8 
239.651 419.139 163.237 8 
242.527 423.403 177.932 8 
246.61 410.082 205.629 8 
246.673 397.063 213.708 8 
250.727 417.517 130.359 8 
253.737 419.129 145.223 8 
268.72 417.315 137.461 8 
282.719 418.994 142.202 8 
249.782 426.802 192.241 8 
250.741 380.844 219.491 8 
253.646 424.175 168.205 8 
257.607 420.053 203.654 8 
260.768 431.845 182.194 8 
260.768 394.823 218.328 8 
264.517 433.114 201.644 8 
264.556 410.165 211.825 8 
265.726 423.111 157.145 8 
268.691 383.877 223.735 8 
271.683 430.095 171.158 8 
275.469 421.028 211.717 8 
275.556 396.939 221.757 8 
280.745 426.889 159.195 8 
282.459 410.974 219.705 8 
286.054 431.709 216.015 8 
289.515 395.937 229.568 8 
293.125 418.745 228.02 8 
293.678 425.152 150.02 8 
299.039 405.702 239.199 8 
300.311 430.604 235.954 8 
303.882 419.773 248.187 8 
307.514 432.955 151.991 8 
311.752 432.042 245.413 8 
325.746 428.617 247.109 8 
339.829 429.211 243.629 8 
354.743 431.568 239.894 8 
271.714 441.932 187.123 8 
276.477 441.281 203.511 8 
282.488 451.243 192.167 8 
283.766 437.816 174.224 8 
289.518 448.235 206.426 8 
293.141 456.502 182.442 8 
293.533 434.213 161.904 8 
296.711 441.884 222.321 8 
296.723 458.906 196.286 8 
296.772 447.805 170.229 8 
303.888 466.68 182.26 8 
303.996 453.433 212.956 8 
306.397 460.022 167.004 8 
307.489 446.92 158.951 8 
309.499 466.308 196.31 8 
309.855 441.287 231.879 8 
314.666 471.892 168.207 8 
315.541 462.916 156.078 8 
317.166 477.383 183.214 8 
317.665 463.032 210.388 8 
317.755 451.91 221.355 8 
322.078 473.322 198.121 8 
323.339 477.124 156.058 8 
325.159 484.477 173.234 8 
325.701 440.219 235.657 8 
329.133 486.38 187.132 8 
329.961 459.47 217.887 8 
332.609 491.929 162.206 8 
335.686 480.964 200.296 8 
335.758 448.874 228.326 8 
336.25 496.395 178.07 8 
339.89 471.402 213.842 8 
341.777 505.802 168.241 8 
342.643 494.959 192.357 8 
346.615 505.947 182.363 8 
347.701 462.143 222.823 8 
349.009 484.388 206.857 8 
350.582 518.9 169.261 8 
350.765 448.456 230.704 8 
354.762 474.866 216.483 8 
356.576 495.086 199.623 8 
357.781 514.801 186.247 8 
359.81 527.779 178.229 8 
372.803 431.845 234.32 8 
361.77 459.073 224.691 8 
364.998 485.353 214.091 8 
365.85 444.961 229.645 8 
368.58 505.06 199.776 8 
368.705 471.033 219.721 8 
369.686 523.892 189.393 8 
371.795 538.792 184.232 8 
375.878 495.583 211.069 8 
379.403 516.239 199.835 8 
379.741 460.022 225.753 8 
379.887 480.708 218.841 8 
381.65 545.829 192.368 8 
382.877 531.774 196.129 8 
383.702 441.925 230.596 8 
386.735 504.88 206.346 8 
390.646 492.037 219.649 8 
390.89 470.702 223.864 8 
393.685 519.862 204.523 8 
393.714 455.884 227.579 8 
393.833 547.784 201.16 8 
397.702 533.822 203.45 8 
400.902 483.705 225.962 8 
401.683 508.058 212.471 8 
401.781 444.669 232.806 8 
404.687 497.01 221.51 8 
404.934 467.701 228.79 8 
408.599 545.609 201.72 8 
408.688 522.876 208.523 8 
414.674 453.83 235.577 8 
415.577 481.93 230.647 8 
415.76 501.862 213.256 8 
416.837 553.901 192.315 8 
418.82 496.75 228.184 8 
418.887 467.716 234.081 8 
421.74 537.66 202.979 8 
422.767 517.93 211.532 8 
428.609 488.935 235.49 8 
429.616 553.254 185.035 8 
429.618 505.259 223.575 8 
432.937 465.66 242.9 8 
433.769 528.506 207.77 8 
434.906 541.165 197.688 8 
440.419 477.894 245.67 8 
440.572 497.028 239.574 8 
440.827 509.651 213.197 8 
444.424 550.327 179.157 8 
447.827 523.474 209.831 8 
448.876 509.464 226.062 8 
450.781 537.607 197.067 8 
450.867 491.723 250.139 8 
452.14 478.502 257.111 8 
453.918 504.409 239.987 8 
458.64 515.248 214.924 8 
458.663 545.21 183.007 8 
462.771 529.561 205.902 8 
465.53 489.251 260.605 8 
465.554 502.081 248.496 8 
465.761 512.022 230.311 8 
465.778 538.187 193.931 8 
465.794 546.864 170.241 8 
472.738 520.113 216.273 8 
476.726 499.958 258.369 8 
476.759 541.43 184.166 8 
476.773 532.608 203.013 8 
478.769 505.657 242.169 8 
480.777 544.736 170.232 8 
480.781 513.669 228.162 8 
486.854 521.432 210.206 8 
487.809 538.489 193.235 8 
490.664 500.449 249.088 8 
494.652 507.305 232.891 8 
494.743 517.283 221.849 8 
494.776 541.162 179.286 8 
494.792 543.689 163.23 8 
498.741 530.365 207.577 8 
504.924 498.039 253.366 8 
505.778 540.055 195.359 8 
508.639 500.418 238.968 8 
508.654 545.161 169.37 8 
508.678 513.4 223.773 8 
512.725 527.201 211.249 8 
515.847 543.567 182.19 8 
519.56 492.295 247.938 8 
520.786 537.752 198.201 8 
520.934 552.471 164.217 8 
521.855 504.12 230.561 8 
523.729 520.273 217.653 8 
529.923 545.352 189.012 8 
530.799 528.558 205.211 8 
531.739 494.488 239.003 8 
533.941 553.495 177.07 8 
537.713 507.196 228.707 8 
541.738 521.27 218.715 8 
541.768 538.623 197.088 8 
546.975 548.225 185.529 8 
548.634 495.168 240.53 8 
551.729 510.938 229.382 8 
551.768 529.322 202.242 8 
551.853 553.86 171.29 8 
555.746 524.191 216.484 8 
558.915 540.181 190.524 8 
562.566 506.222 238.737 8 
562.587 549.556 160.2 8 
565.627 541.431 177.144 8 
566.622 518.255 227.614 8 
566.691 528.23 205.957 8 
573.475 541.33 153.311 8 
573.703 535.542 189.128 8 
575.698 513.029 239.418 8 
576.776 523.714 217.221 8 
577.929 537.063 170.265 8 
580.694 528.363 200.956 8 
586.081 532.265 151.081 8 
587.672 532.422 185.199 8 
587.751 519.491 230.161 8 
678.011 430.818 99.1231 8 
678.453 412.635 93.5944 8 
680.895 397.813 92.1314 8 
685.232 432.539 113.6 8 
686.912 418.883 106.131 8 
691.957 406.046 100.956 8 
695.451 431.441 124.487 8 
699.173 416.123 113.893 8 
608.736 520.528 145.282 8 
623.811 521.536 145.278 8 
638.718 525.038 145.213 8 
652.793 525.892 140.243 8 
665.804 519.819 145.257 8 
673.805 504.8 145.251 8 
675.011 481.931 145.109 8 
677.066 455.864 108.087 8 
677.67 463.79 120.24 8 
678.248 469.639 136.297 8 
679.492 485.841 131.186 8 
679.634 478.797 118.275 8 
681.138 502.845 132.315 8 
682.871 447.833 121.205 8 
684.4 454.654 135.283 8 
691.862 445.85 144.219 8 
591.488 530.204 167.249 8 
591.558 521.283 210.997 8 
597.785 526.783 194.241 8 
598.718 516.402 240.186 8 
601.636 516.384 223.225 8 
602.706 527.383 176.305 8 
605.81 517.889 204.314 8 
605.843 524.116 160.197 8 
612.741 523.643 192.184 8 
612.87 510.938 232.288 8 
616.657 511.467 215.138 8 
616.775 525.072 171.141 8 
620.751 514.659 201.169 8 
626.761 505.745 224.237 8 
626.82 519.919 184.226 8 
627.752 525.09 160.215 8 
634.459 509.321 200.041 8 
637.897 519.979 174.323 8 
637.937 501.958 214.304 8 
641.87 510.921 185.306 8 
646.445 498.477 203.089 8 
648.004 522.274 160.424 8 
652.333 510.246 173.938 8 
652.622 499.64 189.16 8 
655.926 486.945 202.358 8 
660.833 512.836 159.276 8 
661.112 498.105 174.361 8 
662.618 487.673 188.174 8 
666.691 498.726 160.221 8 
670.287 484.376 176.202 8 
670.706 476.663 193.228 8 
673.946 485.88 160.246 8 
679.067 473.104 181.32 8 
680.143 472.969 157.203 8 
686.339 458.538 152.342 8 
687.336 462.541 167.337 8 
-667.326 630.176 376.028 9 
-667.258 621.02 363.097 9 
-639.176 553.776 314.359 9 
-633.12 540.71 308.584 9 
-625.219 526.829 303.069 9 
-622.245 552.7 314.633 9 
-615.273 514.719 297.398 9 
-615.072 537.913 310.893 9 
-608.31 501.685 293.543 9 
-664.34 609.122 350.777 9 
-660.315 597.077 342.816 9 
-655.319 585.029 335.912 9 
-655.195 635.772 370.256 9 
-654.15 620.719 353.339 9 
-649.332 572.909 325.022 9 
-648.424 646.115 378.052 9 
-647.349 609.014 342.733 9 
-644.578 639.126 360.905 9 
-644.135 595.661 335.492 9 
-641.415 627.929 349.981 9 
-637.844 653.479 371.442 9 
-637.225 581.827 327.151 9 
-635.154 617.774 339.307 9 
-634.328 645.989 353.151 9 
-631.501 635.958 343.007 9 
-630.016 598.733 329.45 9 
-629.262 566.649 319.611 9 
-624.61 613.948 328.724 9 
-623.911 657.617 347.416 9 
-623.726 646.058 335.906 9 
-622.84 628.653 330.808 9 
-622.319 582.877 322.828 9 
-615.238 601.842 321.848 9 
-614.236 568.815 318.054 9 
-662.377 635.126 391.267 9 
-654.232 637.872 403.24 9 
-640.56 644.235 405.769 9 
-638.241 630.961 413.68 9 
-637.366 653.975 394.371 9 
-626.386 654.1 404.591 9 
-625.034 664.709 392.103 9 
-623.228 624.769 415.465 9 
-622.214 639.822 412.355 9 
-613.366 674.982 391.366 9 
-611.962 663.685 402.755 9 
-611.239 650.9 409.628 9 
-610.179 630.81 411.42 9 
-604.17 616.245 410.778 9 
-601.295 673.929 401.444 9 
-597.308 637.85 408.821 9 
-597.226 654.758 408.703 9 
-590.333 619.736 405.813 9 
-586.238 672.834 404.395 9 
-583.28 638.808 404.89 9 
-581.205 658.814 408.199 9 
-579.334 608.71 403.926 9 
-576.031 624.792 400.778 9 
-568.268 639.931 401.957 9 
-568.215 667.791 406.118 9 
-565.533 606.85 396.68 9 
-562.218 653.803 404.145 9 
-561.265 627.749 396.983 9 
-554.243 674.809 405.669 9 
-554.102 596.888 392.491 9 
-551.311 616.819 390.026 9 
-597.118 686.684 393.146 9 
-593.599 696.167 382.623 9 
-583.288 696.867 395.309 9 
-576.145 686.595 402.708 9 
-568.227 701.873 399.453 9 
-558.213 690.795 403.24 9 
-535.312 597.792 379.06 9 
-527.239 610.829 379.146 9 
-525.474 587.942 371.803 9 
-515.071 599.546 370.714 9 
-514.259 617.812 379.104 9 
-511.32 585.762 366.963 9 
-504.221 609.817 372.212 9 
-500.279 624.226 378.747 9 
-498.269 592.845 361.12 9 
-489.536 581.936 354.729 9 
-489.332 610.089 368.778 9 
-482.376 597.168 358.675 9 
-482.23 623.01 376.047 9 
-476.941 580.734 346.773 9 
-475.346 610.951 364.739 9 
-470.131 593.564 350.462 9 
-464.27 620.591 378.185 9 
-464.241 583.826 339.192 9 
-461.223 613.885 363.17 9 
-457.29 602.051 354.007 9 
-453.229 592.832 342.207 9 
-452.298 581.07 328 9 
-450.334 614.419 376.271 9 
-446.233 613.545 362.353 9 
-443.278 603.22 349.804 9 
-439.369 593.163 334.971 9 
-438.065 582.493 321.494 9 
-550.276 637.864 396.986 9 
-547.23 661.709 405.664 9 
-540.345 629.054 389.714 9 
-536.304 671.749 407.618 9 
-536.288 641.219 399.743 9 
-529.191 658.846 406.915 9 
-525.324 628.107 385.711 9 
-522.262 637.93 396.664 9 
-522.099 674.925 410.859 9 
-514.253 650.544 402.604 9 
-511.227 632.541 387.417 9 
-507.269 669.638 411.547 9 
-504.219 641.007 397.826 9 
-500.224 653.86 404.986 9 
-493.258 665.444 410.719 9 
-493.217 630.901 390.064 9 
-486.265 641.546 397.56 9 
-483.044 675.094 419.002 9 
-482.234 653.592 404.534 9 
-478.256 629.351 389.663 9 
-475.448 664.485 411.771 9 
-471.224 642.887 398.975 9 
-464.444 664.458 421.43 9 
-464.255 653.691 407.36 9 
-461.229 628.949 390.85 9 
-455.078 642.123 400.866 9 
-452.483 656.345 419.306 9 
-446.388 629.469 392.631 9 
-443.193 646.839 410.215 9 
-440.821 650.23 426.077 9 
-545.497 696.335 407.874 9 
-532.308 688.748 409.547 9 
-513.271 687.729 415.44 9 
-496.13 681.931 417.968 9 
-333.997 553.975 408.386 9 
-324.397 543.754 401.091 9 
-435.33 615.272 377.485 9 
-428.384 603.268 344.943 9 
-428.302 612.414 364.271 9 
-426.341 592.14 324.108 9 
-421.19 587.557 310.274 9 
-418.113 611.164 379.128 9 
-417.255 608.473 355.333 9 
-417.246 599.994 334.15 9 
-410.228 603.535 367.538 9 
-410.228 593.075 318.119 9 
-407.229 605.521 344.306 9 
-405.129 585.433 303.587 9 
-403.257 599.472 330.387 9 
-400.165 607.043 378.992 9 
-399.389 605.226 357.19 9 
-392.241 603.614 340.266 9 
-392.232 591.151 311.139 9 
-389.243 597.261 327.47 9 
-389.17 600.925 370.244 9 
-385.25 586.998 299.055 9 
-383.071 599.018 356.361 9 
-378.154 601.25 336.208 9 
-377.228 594.205 316.146 9 
-377.126 601.048 379.148 9 
-372.357 594.323 367.229 9 
-371.281 591.109 302.132 9 
-368.502 589.348 353.908 9 
-367.219 597.968 326.145 9 
-362.15 587.514 289.296 9 
-360.331 593.553 376.292 9 
-360.316 595.506 340.133 9 
-360.252 596.091 313.17 9 
-355.233 584.754 350.212 9 
-349.359 596.3 330.076 9 
-349.323 594.174 295.116 9 
-349.292 586.502 367.396 9 
-342.959 588.327 342.519 9 
-342.243 596.512 317.193 9 
-339.083 582.02 378.292 9 
-338.962 593.302 284.513 9 
-338.371 581.474 359.213 9 
-335.215 597.282 300.242 9 
-331.547 575.017 344.039 9 
-331.189 588.837 330.245 9 
-328.265 594.609 313.183 9 
-326.104 573.926 375.308 9 
-324.35 574.517 359.239 9 
-324.271 597.096 282.197 9 
-436.029 636.25 401.86 9 
-432.224 623.745 389.294 9 
-429.61 638.405 427.129 9 
-425.245 636.749 412.254 9 
-421.236 628.747 400.259 9 
-418.392 627.518 427.167 9 
-411.378 620.297 393.628 9 
-409.913 626.302 414.213 9 
-404.099 617.009 425.343 9 
-400.052 619.067 404.151 9 
-392.428 612.272 393.579 9 
-389.382 609.559 422.146 9 
-385.509 610.409 407.218 9 
-378.529 599.531 424.075 9 
-378.162 605.906 394.219 9 
-371.23 597.778 410.233 9 
-365.53 584.649 418.917 9 
-364.174 596.847 395.259 9 
-356.994 586.003 405.386 9 
-356.351 573.684 416.114 9 
-350.853 588.299 389.33 9 
-346.165 576.837 401.275 9 
-345.107 564.883 411.346 9 
-335.748 566.129 399.452 9 
-324.895 563.101 389.49 9 
-215.38 553.727 262.206 9 
-213.239 552.793 247.234 9 
-209.751 538.881 241.275 9 
-209.739 539.595 261.207 9 
-309.228 520.93 379.057 9 
-307.532 553.588 378.954 9 
-302.481 534.812 378.966 9 
-299.419 512.954 369.982 9 
-297.544 551.612 368.017 9 
-292.361 530.812 369.059 9 
-292.306 502.977 358.132 9 
-287.022 554.195 332.172 9 
-287.015 554.04 353.359 9 
-285.534 541.612 360.94 9 
-285.145 516.768 362.341 9 
-278.286 505.923 350.078 9 
-278.011 528.843 358.482 9 
-275.054 544.937 350.378 9 
-274.381 549.649 326.018 9 
-270.481 501.231 337.882 9 
-268.778 486.111 321.697 9 
-267.272 516.826 350.151 9 
-263.58 534.609 346.855 9 
-263.464 545.398 335.118 9 
-259.932 541.002 321.5 9 
-259.477 497.21 327.76 9 
-257.322 476.894 316.77 9 
-257.168 509.747 339.292 9 
-253.283 553.701 313.124 9 
-252.517 526.682 341.832 9 
-249.224 536.783 331.232 9 
-246.125 495.645 321.535 9 
-245.533 539.573 316.806 9 
-245.27 467.75 315.987 9 
-242.156 508.72 329.381 9 
-238.515 526.439 330.81 9 
-238.458 550.67 305.765 9 
-238.388 526.566 314.179 9 
-238.27 483.891 314.978 9 
-231.309 498.892 317.956 9 
-231.212 463.816 317.327 9 
-230.419 537.639 306.971 9 
-228.467 513.177 324.879 9 
-224.244 520.797 307.181 9 
-224.154 478.919 314.592 9 
-224.123 549.844 299.375 9 
-221.225 451.695 320.877 9 
-219.201 553.804 285.245 9 
-218.517 532.477 299.864 9 
-216.324 507.905 316.856 9 
-216.223 491.852 313.831 9 
-211.524 541.589 277.264 9 
-210.251 464.76 316.081 9 
-209.596 519.555 299.806 9 
-317.149 533.784 393.296 9 
-221.4 572.731 262.221 9 
-320.242 596.599 296.212 9 
-318.046 581.117 332.371 9 
-317.388 572.36 346.42 9 
-313.944 566.103 370.485 9 
-313.394 590.241 314.234 9 
-309.205 597.917 278.241 9 
-306.548 571.451 335.743 9 
-306.338 565.569 356.223 9 
-306.307 592.668 298.151 9 
-303.181 581.859 322.303 9 
-295.928 562.316 345.334 9 
-295.309 585.495 310.236 9 
-295.276 594.43 286.059 9 
-294.027 570.084 328.534 9 
-286.121 588.36 296.47 9 
-285.114 575.935 318.443 9 
-278.23 593.521 285.003 9 
-277.223 580.763 307.233 9 
-274.392 564.6 319.031 9 
-267.221 586.741 295.215 9 
-263.495 572.458 310.647 9 
-252.324 583.368 296.889 9 
-249.29 566.732 307.087 9 
-239.256 590.636 290.013 9 
-238.441 576.552 297.692 9 
-231.397 562.642 299.928 9 
-228.059 580.861 286.326 9 
-224.303 584.783 271.234 9 
-223.109 569.815 278.265 9 
-169.149 432.817 211.198 9 
-159.334 421.671 212.591 9 
-148.291 430.715 218.444 9 
-148.275 411.179 208.75 9 
-138.279 405.178 198.185 9 
-137.268 419.495 214.718 9 
-130.288 432.445 223.683 9 
-127.17 412.599 206.352 9 
-127.068 406.405 188.269 9 
-121.057 432.982 248.214 9 
-119.234 423.071 217.935 9 
-119.205 417.8 262.279 9 
-115.16 408.479 177.269 9 
-113.119 431.795 260.412 9 
-112.425 412.309 196.099 9 
-112.424 402.679 261.765 9 
-112.229 433.07 226.899 9 
-110.97 423.035 240.232 9 
-105.485 418.744 255.659 9 
-105.231 419.934 209.171 9 
-101.943 414.08 232.229 9 
-101.304 390.664 262.121 9 
-101.244 409.111 173.25 9 
-99.2589 412.283 189.242 9 
-98.4034 403.657 254.811 9 
-98.2798 427.679 222.278 9 
-94.9505 423.008 245.326 9 
-174.059 432.858 324.397 9 
-169.191 418.78 304.246 9 
-167.635 411.966 289.071 9 
-162.111 432.749 303.275 9 
-159.485 423.948 285.12 9 
-159.221 404.789 279.204 9 
-150.327 415.724 274.889 9 
-148.597 431.03 276.782 9 
-145.022 396.135 278.848 9 
-137.417 422.918 269.69 9 
-134.298 407.706 272.118 9 
-130.22 394.743 279.11 9 
-117.263 383.599 280.899 9 
-101.991 383.186 274.514 9 
-206.191 523.8 235.24 9 
-204.209 526.798 250.24 9 
-203.757 508.659 227.333 9 
-199.756 490.945 223.19 9 
-198.98 519.979 262.164 9 
-198.975 512.938 242.129 9 
-195.155 476.815 221.218 9 
-193.747 498.419 235.605 9 
-191.656 507.398 254.448 9 
-188.671 462.421 218.556 9 
-188.183 484.818 231.214 9 
-184.616 494.479 247.454 9 
-180.868 471.127 227.793 9 
-179.965 450.048 213.163 9 
-178.475 498.568 261.288 9 
-177.422 482.579 242.413 9 
-172.143 458.861 225.154 9 
-170.614 487.408 254.405 9 
-167.342 469.687 239.384 9 
-166.424 446.546 219.636 9 
-159.989 477.005 254.144 9 
-159.467 458.394 234.555 9 
-153.292 444.631 225.469 9 
-152.313 463.689 246.34 9 
-148.549 472.426 262.225 9 
-145.062 453.069 238.081 9 
-143.124 456.797 262.363 9 
-137.282 459.66 249.34 9 
-134.352 445.631 256.189 9 
-134.196 443.832 232.206 9 
-127.07 451.205 242.965 9 
-119.766 445.14 262.371 9 
-206.201 444.776 323.201 9 
-206.189 533.81 289.255 9 
-206.163 504.899 302.179 9 
-205.262 477.789 311.042 9 
-203.615 530.378 271.921 9 
-200.025 494.802 310.764 9 
-199.173 519.82 289.266 9 
-195.384 496.635 294.112 9 
-195.368 461.511 313.693 9 
-191.313 447.432 319.73 9 
-189.929 509.125 285.488 9 
-188.219 473.794 308.219 9 
-188.155 511.841 268.229 9 
-184.619 488.327 288.563 9 
-184.568 493.612 304.811 9 
-181.087 459.031 310.6 9 
-177.412 498.616 278.192 9 
-175.474 480.566 302.863 9 
-173.84 480.962 281.715 9 
-173.449 447.485 315.81 9 
-170.271 466.745 304.096 9 
-166.584 488.402 270.272 9 
-163.483 480.529 292.109 9 
-162.891 470.953 275.524 9 
-162.616 454.578 306.703 9 
-156.1 465.865 296.353 9 
-155.877 444.685 296.36 9 
-148.634 448.921 283.927 9 
-148.624 469.357 283.145 9 
-138.421 441.871 274.826 9 
-137.949 459.952 278.372 9 
2.58652 312.007 125.939 9 
16.6685 310.861 120.083 9 
-1.16015 311.847 153.204 9 
-0.851967 312.195 202.16 9 
5.74495 311.741 189.227 9 
14.4993 304.524 175.338 9 
18.6189 293.661 164.343 9 
-31.2434 392.755 145.126 9 
-20.2608 379.792 145.233 9 
-19.1105 374.798 131.249 9 
-18.0769 364.838 145.254 9 
-16.1294 326.685 145.412 9 
-13.2087 362.799 120.242 9 
-12.1506 355.862 135.259 9 
-5.8758 343.935 145.395 9 
-3.2233 352.777 113.245 9 
-2.37855 329.883 142.036 9 
-1.43159 348.601 127.148 9 
5.75699 335.779 131.226 9 
7.97218 343.974 116.322 9 
13.942 325.813 124.35 9 
17.055 340.125 104.265 9 
-92.8427 405.153 224.261 9 
-91.2371 415.741 205.26 9 
-89.2791 407.432 163.237 9 
-87.8946 387.212 256.835 9 
-87.5623 408.57 245.833 9 
-87.3418 408.486 178.28 9 
-83.856 397.011 215.379 9 
-83.3021 409.584 194.298 9 
-80.4667 411.621 214.134 9 
-80.2651 409.682 230.287 9 
-76.8401 397.134 243.607 9 
-76.3289 377.508 262.139 9 
-74.8307 389.868 206.582 9 
-74.1198 404.129 159.269 9 
-73.1951 402.862 177.24 9 
-71.553 383.346 249.636 9 
-70.6355 404.333 203.145 9 
-69.5724 400.318 223.371 9 
-67.0754 379.855 199.311 9 
-63.1975 397.826 187.243 9 
-62.5282 390.467 235.014 9 
-62.3756 373.308 260.016 9 
-60.2177 390.787 214.246 9 
-59.1789 397.849 170.252 9 
-58.3192 400.412 154.198 9 
-57.1319 368.881 191.235 9 
-55.2388 376.716 245.199 9 
-54.9265 386.928 193.432 9 
-50.0795 365.064 260.532 9 
-49.3054 361.773 181.179 9 
-48.5879 383.254 228.12 9 
-48.1332 382.936 212.191 9 
-48.0796 387.915 174.28 9 
-47.2979 375.338 199.706 9 
-45.1005 394.146 155.528 9 
-44.364 377.739 184.135 9 
-41.0285 350.972 174.233 9 
-40.9443 374.195 240.384 9 
-38.1498 375.891 220.254 9 
-37.8576 383.142 163.397 9 
-37.3344 364.358 190.635 9 
-36.3419 365.484 252.943 9 
-34.0782 368.836 174.331 9 
-33.5814 343.751 163.954 9 
-33.2795 370.679 203.314 9 
-28.1555 368.996 231.285 9 
-26.5769 332.546 157.222 9 
-26.5184 373.552 160.988 9 
-26.3786 352.343 181.61 9 
-26.1532 358.8 167.295 9 
-23.7826 358.475 196.526 9 
-22.9815 364.291 245.45 9 
-22.8842 369.302 214.053 9 
-20.0556 340.169 170.902 9 
-16.047 354.829 156.348 9 
-13.8831 350.91 206.991 9 
-12.1918 327.83 161.215 9 
-10.5413 329.654 188.24 9 
-9.51405 336.657 203.397 9 
-4.98133 343.848 216.064 9 
-2.99079 325.832 211.156 9 
-87.407 374.49 274.837 9 
26.0908 303.796 109.528 9 
36.6174 311.798 102.095 9 
23.4715 282.455 156.496 9 
27.8822 289.844 175.191 9 
23.5115 321.761 112.965 9 
29.6855 329.727 102.17 9 
-26.5449 399.693 227.234 10 
-26.2344 387.933 261.928 10 
-22.8425 389.697 215.371 10 
-21.3375 408.599 246.453 10 
-19.2115 375.794 254.244 10 
-15.489 403.15 216.783 10 
-15.2705 396.512 237.592 10 
-12.4284 398.039 261.799 10 
-9.39183 373.023 242.038 10 
-8.24581 391.902 205.139 10 
-5.31924 389.021 252.912 10 
-4.25846 406.641 249.614 10 
-3.63616 430.573 197.381 10 
-1.25899 406.142 216.745 10 
0.168969 416.862 188.307 10 
3.09228 433.028 210.997 10 
3.62639 401.941 203.22 10 
4.29745 383.907 238.957 10 
4.82108 412.767 262.284 10 
5.34502 418.513 202.664 10 
7.20874 398.434 245.634 10 
10.9143 414.799 218.203 10 
15.7072 401.505 214.449 10 
16.1249 424.908 232.036 10 
16.7186 422.029 261.997 10 
17.8616 409.611 250.437 10 
-27.173 409.718 272.38 10 
-23.2133 419.788 285.243 10 
-15.286 421.143 298.248 10 
-12.2178 413.801 269.229 10 
-8.35496 423.136 284.237 10 
-5.11495 423.583 311.206 10 
-0.188433 426.754 297.241 10 
2.64987 425.082 272.081 10 
4.79056 426.784 322.24 10 
7.43279 430.329 285.012 10 
9.37454 432.282 308.287 10 
16.703 431.908 331.303 10 
-2.90578 449.072 218.937 10 
2.20881 462.581 224.871 10 
7.85504 451.816 233.179 10 
16.1996 439.561 235.5 10 
16.6069 439 296.191 10 
18.2285 441.303 318.143 10 
20.7061 395.09 235.87 10 
22.5603 411.626 228.478 10 
23.8319 430.818 245.199 10 
30.7482 419.015 256.028 10 
30.9177 405.721 239.302 10 
35.8022 432.809 257.222 10 
20.881 432.474 271.518 10 
21.863 447.817 250.187 10 
23.5604 473.968 244.388 10 
29.9803 484.544 236.165 10 
32.5399 481.053 255.355 10 
41.6632 490.099 243.238 10 
45.5376 491.255 261.248 10 
56.7003 495.118 251.211 10 
66.8536 498.261 262.26 10 
23.6945 447.885 306.239 10 
23.8064 441.768 283.255 10 
27.3017 444.23 329.677 10 
30.7183 451.891 292.185 10 
32.9837 464.753 268.104 10 
33.0021 455.64 318.175 10 
34.7744 437.005 340.927 10 
34.785 437.869 274.167 10 
37.5876 463.035 303.12 10 
37.8969 479.741 269.176 10 
38.1826 453.459 333.87 10 
41.0513 471.761 283.106 10 
41.4766 469.995 315.277 10 
41.7766 447.008 283.032 10 
45.2672 465.462 329.002 10 
45.8702 447.79 345.108 10 
46.5746 480.772 293.462 10 
46.7468 487.82 280.257 10 
48.6897 480.856 322.241 10 
49.7567 458.148 293.878 10 
52.5224 462.985 343.475 10 
52.5694 490.842 303.328 10 
52.7801 469.21 304.831 10 
55.0562 477.703 336.039 10 
55.3607 491.521 331.166 10 
56.0787 497.51 287.183 10 
57.658 448.859 354.424 10 
58.9443 499.77 315.181 10 
60.8304 498.787 343.221 10 
62.9649 508.468 297.34 10 
63.2145 478.525 309.306 10 
63.2458 483.844 347.029 10 
64.8232 494.793 358.237 10 
65.5897 469.861 350.494 10 
66.0613 498.743 372.241 10 
66.1813 509.807 326.998 10 
66.5795 509.907 351.262 10 
66.7648 487.835 321.214 10 
66.8576 501.478 278.308 10 
68.258 480.442 361.447 10 
69.8645 483.841 376.221 10 
70.184 513.63 365.207 10 
70.4249 457.9 360.558 10 
70.6516 511.135 312.068 10 
71.7165 519.814 336.269 10 
74.0968 522.677 377.251 10 
74.3994 469.663 369.336 10 
76.7288 523.878 357.186 10 
77.6148 523.176 322.829 10 
77.6251 530.856 344.28 10 
77.7684 507.248 296.092 10 
81.0453 534.569 371.333 10 
81.7597 500.49 273.282 10 
84.7737 515.887 307.206 10 
84.7877 542.788 351.249 10 
85.6546 533.169 331.961 10 
88.6705 548.923 379.129 10 
88.8085 502.051 286.089 10 
90.7628 552.809 362.238 10 
92.0012 532.527 361.394 10 
92.7087 525.091 321.013 10 
95.6922 513.108 296.134 10 
95.8527 538.145 342.841 10 
99.6349 510.214 310.591 10 
102.607 548.891 373.253 10 
102.727 547.62 352.457 10 
102.782 526.773 333.26 10 
106.717 502.441 296.335 10 
106.896 516.236 321.96 10 
110.766 533.753 344.281 10 
117.146 507.321 314.834 10 
117.549 543.481 355.767 10 
117.568 523.382 336.594 10 
124.484 531.408 349.678 10 
124.665 511.632 330.431 10 
127.888 553.911 363.883 10 
63.6306 539.891 435.082 10 
65.7166 525.81 429.194 10 
67.1056 501.744 387.205 10 
67.8086 512.795 418.244 10 
68.1893 506.765 401.264 10 
68.6967 553.825 435.177 10 
70.1225 527.736 415.301 10 
70.5126 515.887 390.184 10 
71.5337 487.627 390.348 10 
71.5478 541.881 422.163 10 
72.419 527.893 400.159 10 
75.6672 541.859 407.188 10 
78.7343 534.825 386.23 10 
84.0933 549.566 396.394 10 
97.8441 563.761 371.243 10 
106.391 575.345 375.909 10 
110.741 558.594 361.567 10 
120.738 580.146 378.862 10 
120.779 567.718 368.345 10 
75.8648 570.745 436.312 10 
76.7893 586.979 462.239 10 
77.407 557 422.064 10 
81.6597 583.083 442.073 10 
84.7821 570.799 423.238 10 
86.4766 562.082 410.038 10 
87.7712 587.894 473.241 10 
91.8657 588.539 457.271 10 
92.8447 581.594 432.332 10 
93.682 562.919 395.191 10 
97.1179 572.403 407.469 10 
99.6685 589.219 481.425 10 
101.885 588.495 443.322 10 
102.726 577.947 420.178 10 
102.959 594.444 468.243 10 
105.251 564.302 386.052 10 
107.953 588.389 429.322 10 
109.276 577.785 389.898 10 
110.009 597.524 454.295 10 
110.668 587.077 411.086 10 
113.596 593.295 484.508 10 
114.265 592.51 391.274 10 
115.315 603.289 467.199 10 
117.095 598.474 437.339 10 
118.853 576.602 403.397 10 
119.714 603.855 402.177 10 
122.034 606.547 450.341 10 
122.637 601.994 422.188 10 
124.479 602.17 480.495 10 
124.72 592.306 494.34 10 
125.881 588.448 414.605 10 
126.911 613.685 464.238 10 
128.729 591.941 390.09 10 
128.869 611.73 437.226 10 
129.376 611.003 411.495 10 
130.597 611.887 396.915 10 
133.704 540.69 361.472 10 
142.752 551.753 366.49 10 
135.737 581.114 377.767 10 
135.756 565.668 369.593 10 
149.754 576.908 374.98 10 
153.789 561.799 369.098 10 
160.79 585.835 379.123 10 
165.483 642.729 378.906 10 
133.69 614.891 480.304 10 
134.834 620.739 454.253 10 
135.536 603.18 490.548 10 
136.164 624.484 403.212 10 
137.727 622.858 440.215 10 
138.495 599.234 422.006 10 
138.528 613.828 422.422 10 
138.67 625.919 470.278 10 
142.547 597.06 388.653 10 
142.781 617.796 391.228 10 
144.372 628.15 415.436 10 
145.026 635.595 400.273 10 
145.668 633.869 450.245 10 
148.134 617.402 484.903 10 
148.246 628.128 429.456 10 
148.611 638.865 467.193 10 
149.426 620.121 454.304 10 
149.543 613.365 434.832 10 
149.75 605.878 495.323 10 
152.877 641.736 413.202 10 
153.084 634.701 386.639 10 
153.627 627.971 476.271 10 
153.745 606.809 387.063 10 
154.728 645.865 455.216 10 
156.202 649.486 395.301 10 
156.866 634.768 439.199 10 
158.042 649.563 470.214 10 
160.2 654.554 411.191 10 
160.288 645.047 426.455 10 
160.372 631.177 462.27 10 
160.503 616.101 493.755 10 
160.848 619.829 384.436 10 
163.666 660.858 389.217 10 
164.059 628.534 486.919 10 
165.095 667.67 407.262 10 
165.566 645.911 445.336 10 
166.603 660.862 426.277 10 
166.869 638.667 476.242 10 
167.73 599.854 382.777 10 
168.468 674.827 422.32 10 
169.109 674.714 393.26 10 
170.988 634.43 452.417 10 
171.93 661.748 440.202 10 
174.566 643.109 464.18 10 
174.588 653.855 454.383 10 
176.005 640.6 489.055 10 
177.601 674.822 444.316 10 
181.874 649.684 476.22 10 
181.879 666.753 456.208 10 
186.894 652.829 462.059 10 
188.899 649.699 494.132 10 
190.422 674.949 465.492 10 
192.859 658.704 480.237 10 
199.825 659.748 494.225 10 
201.587 674.798 476.481 10 
208.496 671.132 489.242 10 
141.639 595.326 501.41 10 
156.692 598.014 506.422 10 
169.653 606.019 506.503 10 
174.578 622.994 498.535 10 
183.615 613.969 508.544 10 
185.439 634.082 499.78 10 
194.591 625.766 508.522 10 
196.734 610.301 516.508 10 
198.842 640.762 505.162 10 
206.917 620.692 515.896 10 
206.962 652.729 505.952 10 
210.628 635.844 512.709 10 
214.187 668.346 502.983 10 
220.564 619.092 520.624 10 
220.725 656.797 512.345 10 
224.906 635.676 516.886 10 
225.709 674.866 510.305 10 
232.752 647.818 518.388 10 
235.72 625.875 521.621 10 
235.738 666.775 517.386 10 
246.681 639.858 521.705 10 
246.815 656.786 521.137 10 
246.823 674.821 522.119 10 
169.41 681.778 408.15 10 
170.814 689.788 420.241 10 
173.767 696.797 433.246 10 
174.683 703.808 420.243 10 
175.999 711.793 437.208 10 
179.692 721.786 447.271 10 
181.331 702.778 447.552 10 
185.372 728.923 459.924 10 
185.377 688.887 453.433 10 
187.733 713.783 458.285 10 
189.291 738.095 472.926 10 
194.393 689.907 465.645 10 
194.697 720.747 469.328 10 
198.937 704.788 469.135 10 
199.717 741.79 482.447 10 
203.06 725.998 479.949 10 
205.66 689.795 476.365 10 
208.27 710.83 479.743 10 
213.557 736.866 488.796 10 
216.057 687.785 486.9 10 
217.693 720.76 489.335 10 
218.794 753.736 484.146 10 
218.984 702.82 486.975 10 
228.443 711.737 494.679 10 
228.54 693.807 495.59 10 
228.569 737.007 494.738 10 
240.629 748.046 493.627 10 
234.378 689.283 508.879 10 
235.934 725.783 500.935 10 
239.438 702.782 502.764 10 
245.182 696.526 515.911 10 
246.47 715.888 506.618 10 
246.53 737.042 502.589 10 
260.77 642.794 524.289 10 
260.774 670.792 526.269 10 
267.641 655.792 526.653 10 
275.715 667.837 529.535 10 
289.778 671.894 531.826 10 
304.769 674.824 530.187 10 
250.734 758.958 488.437 10 
264.589 760.323 492.584 10 
271.783 768.936 482.305 10 
278.734 763.914 495.294 10 
286.687 771.034 485.326 10 
300.715 771.177 492.354 10 
318.637 775.093 493.265 10 
254.531 686.766 526.691 10 
256.106 703.596 522.964 10 
257.534 748.159 501.703 10 
257.552 725.889 511.574 10 
264.788 739.794 513.238 10 
267.451 714.216 525.251 10 
268.076 699.807 533.771 10 
268.642 684.73 530.675 10 
271.584 754.09 504.483 10 
